ply
format ascii 1.0
element vertex 695
property double x
property double y
property double z
property uchar red
property uchar green
property uchar blue
end_header
-0.5531906972682530 -0.0912236981522986 1.9800049694768291 104 148 161
0.0745697027169021 0.1746508851685148 1.4739655895329347 70 55 60
-0.0733644950949841 0.1825555348101542 1.5924775617526847 15 30 35
-0.4631497647241242 -0.1098898615753390 1.9672179051930765 109 143 142
-0.6724592135023045 -0.1486164418295926 1.9388024504033519 106 146 148
-0.4448929479412400 -0.0188515562452012 1.9471515244015045 75 99 111
-0.6849497571780968 0.2697877669182821 1.7317111355260808 129 155 142
-0.6390136494834738 0.2704151175093186 1.7762391153956736 52 77 73
-0.6292689309619360 0.2629355586147453 1.7851683552780058 35 67 66
-0.4930724640867397 -0.0281059649124417 1.9564777559152227 43 87 96
-0.7463029715719667 -0.2170977351544049 1.8896600016970218 78 123 128
-0.7265776494666450 -0.0938608652930857 1.9030106088293692 38 77 84
-0.4873431831397529 -0.0323932627958542 1.9562860900612882 98 142 155
-0.1974456350436060 0.0873374307255659 1.5176653458199498 99 60 45
-0.4434607815927333 -0.0411107534574929 1.9477608772315180 14 56 70
-0.6006928261340191 0.2260871009199143 1.7498618949624232 94 109 112
-0.6150792296688621 0.2549273858238069 1.7954821413910782 48 78 80
-0.7053962828480327 -0.0836567101554342 1.9142471297411621 120 158 161
-0.6481010938781959 -0.0585527434088095 1.9384150994699791 113 153 155
-0.4512333964811642 -0.0360114737305362 1.9548756979628807 39 86 94
-0.6238393673233764 -0.0590422143464996 1.9381673617154715 105 143 146
-0.0567527340647651 0.1592092361165533 1.6448137232561555 30 67 75
-0.4072446052920656 -0.0562853507428150 1.9377920072052244 95 113 113
-0.3787385634453059 -0.1433065896774848 1.9552871878868927 104 151 169
-0.5797554696686545 -0.0398677984247969 1.9610437764454118 15 45 56
-0.7880217355796836 -0.1526875775457272 1.8628589598313199 223 223 221
-0.0390613914162829 0.1939271603486605 1.6869497407218357 104 153 158
-0.5821376473593091 0.2407809964366482 1.7884119460444627 38 57 61
-0.6244490543381283 0.2391313167532954 1.7894764037088946 48 83 85
-0.5996561446479823 0.2447188455200496 1.8086709880967429 27 63 63
-0.6205762307056433 0.2099648572649349 1.7900184942358848 115 147 146
-0.5096297061161186 0.1388706152196675 1.6505051855784589 18 4 1
-0.2862399922085607 -0.1853804688570825 1.9235625723311391 35 88 104
-0.6151672066282443 0.1993922234393518 1.8008662085437914 100 134 136
-0.5109142429917526 -0.0440235878578016 1.9645816608015554 103 143 151
-0.0160299593794318 0.1664252025001679 1.7345721608062485 106 124 128
-0.4020876671110667 -0.0739015365283205 1.9376209723462274 9 29 36
-0.3637017880025574 -0.1515355684294103 1.9594089873675520 83 110 117
0.3853023944268091 0.1821992840579588 1.7437758513874493 40 50 42
-0.3497648334790140 -0.0863848830087799 1.9281165421261559 106 143 151
-0.5043081793993779 -0.0507973906370407 1.9641438000478137 30 79 93
-0.5666641302977773 0.2369072709918941 1.8190886148225922 89 108 112
-0.6315021786823067 0.2106078640272042 1.7856534923534810 107 136 131
0.3343147252650974 0.1562198249494791 1.7345406309438471 43 55 45
-0.5691291366357406 0.2006497535211552 1.8268346070089729 99 128 132
-0.0168060427444094 0.1759991220189013 1.7198987043515361 98 118 117
-0.5081204543952315 -0.1563700006811302 1.9672924958460518 6 50 59
-0.5912072918756556 0.1867427130199971 1.8126881166897901 41 72 75
-0.3669363395249771 -0.1618972096697051 1.9616810243169929 36 85 102
-0.5767761304855227 0.2181307475584421 1.8230539851899104 100 133 138
-0.2952952659087059 -0.2098460879867916 1.9202274495831786 103 154 171
-0.5116239917136545 -0.0614156610072803 1.9674367493646647 100 147 157
-0.5917134205179608 0.2134937981579677 1.8187093838981290 38 79 85
-0.4481693128779509 -0.0801621793239032 1.9529541307476337 30 72 86
-0.5782196446619549 0.2109107153733572 1.8233849064816872 20 55 59
-0.2738007034996695 -0.2522144701126036 1.8933236630589201 20 69 84
-0.5487590556750612 -0.0640636855316290 1.9704963102023230 65 113 127
-0.5481734879891582 -0.0631369997992691 1.9714333036712164 39 78 85
0.1765492307357973 0.1228737899431106 1.7538422903829829 98 135 141
-0.3638914344060876 -0.1701128424357888 1.9641213516128695 93 112 118
-0.3045894417507817 -0.1156532056971319 1.9258002734313890 45 83 92
-0.1165312388440783 0.1108950006752547 1.6930823003260556 88 126 135
-0.4966609663392368 -0.0776100059092887 1.9662750320353697 101 149 159
-0.4734416810111820 -0.1626228719659015 1.9737079551461003 113 147 148
-0.1732995156381005 0.0592279156033041 1.7265679107345204 117 167 178
0.5809087991783738 0.2013423234085096 1.8020879688068590 17 16 11
-0.6506105506513574 -0.1088320383789227 1.9440846151143181 40 82 94
0.6205584429579979 0.1661298597902275 1.8505124335593461 95 105 96
-0.6103663232205211 -0.0897676675575648 1.9616480453241325 43 78 82
-0.5020063996273235 -0.0818011067639577 1.9671098129676861 51 104 122
-0.3965493269671090 -0.1039653848342160 1.9486889804018850 114 132 136
0.2156202731340115 0.0679356982282814 1.7536796788626610 89 102 95
0.2091110914566079 0.1168725874635096 1.7342904236732697 76 91 88
-0.3442846908954865 -0.1960833726597482 1.9566494392856542 91 133 132
0.2711922995075922 0.0709185309823857 1.7653115422498062 102 112 104
-0.7264634508908814 -0.1676232024997789 1.9056138037703436 122 163 167
-0.4142415758356441 -0.1790923109743022 1.9732463781745926 22 69 87
0.5796937713941417 0.1303612106478756 1.8331678867686303 36 46 38
-0.3365524837187595 -0.1228648236940302 1.9400204470429829 100 140 152
-0.2820666227226008 -0.2835828087782579 1.8928486509224431 83 135 148
0.6386859920358052 0.1491040341487899 1.8577492160266995 95 99 85
0.2033690083758493 0.0522605259057939 1.7558601670776062 40 55 48
0.1677809484814299 0.0963018489033559 1.7719638967465712 97 144 150
-0.6280773030398009 -0.1085959576324708 1.9614027796885189 115 154 161
0.1906045296796766 0.0764033580856941 1.7486856314232639 38 53 48
-0.4038732016253269 -0.2005594423738060 1.9730126314882734 100 147 157
-0.2569563271848990 -0.1621321804775528 1.9104121605611588 88 126 135
0.8105957435320816 0.1305973522980470 1.8370903598933612 34 25 18
-0.4899189198982870 -0.2052355011550806 1.9726933964208559 107 156 170
0.6310435807430472 0.1388230292918601 1.8451231643293398 89 86 79
0.1977079458524815 0.0509159687566891 1.7528828707292179 55 71 61
-0.4224771002413681 -0.1204048283309500 1.9567294889537545 95 144 158
-0.4193092642320466 -0.2151746902783302 1.9730300929172151 97 144 152
0.4578629000853996 0.0961040675277115 1.7988484569098890 31 41 32
0.5817932472234097 0.1030346673570825 1.8431594151777817 93 104 96
-0.3351140108239591 -0.1333165733681951 1.9452067291101647 113 161 181
0.5900210871977173 0.1022376470557448 1.8461180488064921 93 104 96
-0.5642149539964540 -0.1018437266144502 1.9774678391081986 7 53 66
-0.3338876315247034 -0.2872469561290104 1.9162000241376977 111 160 174
0.5784357983454270 0.0885282431281023 1.8370580816991555 122 135 126
-0.5447989659428948 0.1272322471492246 1.8688641466166287 36 79 88
-0.3569480473784533 -0.2303624483447046 1.9625435972397338 95 147 161
0.1693814890302090 0.0146339175498973 1.7675773679586755 57 74 68
0.1683748798861643 -0.0063561360281715 1.7497842441356766 57 73 70
-0.2814420989373607 0.0410573669960277 1.8302793994392685 196 136 102
-0.3469593658237498 -0.2661743513673535 1.9350466763549099 110 168 190
0.6612063730029658 0.0903116242285942 1.8695502642475628 48 61 52
0.7195489354972673 0.1006209273445033 1.8915346630443362 21 21 19
-0.5600561438618245 -0.1183787710059543 1.9715139757716389 97 141 150
-0.3928384724830095 -0.2301535386782099 1.9762309969818985 136 170 179
0.1726583737596246 0.0223522344313564 1.7475884324457143 48 64 61
-0.4438599033852665 -0.2309866176704829 1.9834434099785945 106 155 162
-0.6763342503758808 0.0470958598048873 1.8941384034738518 54 86 85
-0.7205881306449760 0.0262161206270079 1.8824263817258307 38 77 82
-0.4676191633366466 -0.2604802531733786 1.9768223468884469 36 57 62
-0.5714605848655565 -0.1111681799569386 1.9801385278123782 108 147 152
-0.6952910560814214 0.0307657044756867 1.8881231378370478 115 150 152
-0.6828124081078319 0.0368165892251778 1.8935832937385637 113 140 133
-0.5091693120278552 -0.1223119861250085 1.9707705977587555 124 162 163
-0.4056553919423207 -0.3068546716680108 1.9487388481143233 13 65 76
-0.6051862496033301 0.0549244337215769 1.9139760299821138 77 96 100
-0.3377911659294923 -0.1501265621649151 1.9480840160113873 99 152 170
0.8091385090749902 0.0810136426597463 1.8415279727551901 26 19 11
0.1025007855813106 -0.1129799243836885 1.7280145468635368 103 143 143
-0.2576375037864729 -0.2390690030105383 1.8813285303123179 62 111 126
-0.3449038199232239 0.0082042987749206 1.8703603255872816 117 88 82
0.1645290200316146 -0.0189140484214175 1.7708315982174270 52 73 68
0.1099912280824156 -0.1071903480037587 1.7382596252511711 106 148 147
0.7326766053331172 0.0997667651410732 1.8938768216908577 26 18 15
-0.7038642873491080 0.0188360321249131 1.8893744967020440 120 158 159
-0.3965980608996529 -0.1491236853363553 1.9607027841418447 48 96 108
-0.6902226861400900 0.0242564031104114 1.8964018665382318 116 145 141
-0.6107468797374995 0.0449254968986373 1.9203393072897970 45 85 95
0.4978218458593721 -0.0230464275153980 1.7972101548614758 100 107 99
-0.7055604202952590 0.0132938720358178 1.8917507768393211 30 71 77
-0.1118599236047518 -0.1537322266083701 1.6747691347930831 82 122 134
-0.6402624961391169 0.0377469358050079 1.9199608812897027 111 151 151
-0.7417688542195203 0.1036580785797197 1.3575285786415658 55 68 76
-0.3426849123663697 0.0216287853297035 1.8760501195026937 50 32 58
-0.5462677990650227 0.0374489378254445 1.9309732590270807 25 49 53
-0.2867092337561374 -0.2073187246742241 1.9183733361325097 50 95 101
-0.4336711620498157 -0.1543555635821899 1.9662738060150713 96 129 138
-0.3172836734156004 -0.1780500372381278 1.9462839216721333 21 60 75
-0.4752925668065425 0.0339373812584497 1.9308092659493565 25 54 62
-0.5909715048610109 0.0508512831313578 1.9243498165750250 107 138 143
-0.5195955987844383 0.0354562915336959 1.9346520456325738 20 49 57
-0.6320991583199854 0.0400687164068226 1.9209332904589418 23 61 70
-0.3320670877697954 -0.1867221769665606 1.9475394039423928 94 130 130
-0.5558408768753272 0.0331553740532540 1.9374339635811346 18 55 63
-0.4140999866922849 -0.1672493678491456 1.9678580560467400 115 141 138
-0.7256082318017330 -0.0163431012077030 1.8932506886480571 46 89 98
-0.5653970957729152 0.0318139669410141 1.9398124240162213 57 83 84
-0.4482996989974944 0.0208978860355818 1.9277292628131164 86 113 124
-0.5945500516052197 0.0229811585991766 1.9339267285488244 117 145 146
-0.4416561265430420 -0.1701100180684298 1.9693759801892199 33 86 104
-0.5803594238443729 0.0401383319308369 1.9333999814399907 79 94 97
-0.7112026236728183 -0.0177823864481175 1.9003840153087213 71 110 115
-0.1326580332304716 -0.1497418377766229 1.7338948628998994 126 114 54
-0.4652342211685170 -0.1719847779988719 1.9736446133120318 43 102 120
-0.4020459759679666 0.0040661726763935 1.9231862547862142 40 72 83
-0.2876575882791551 -0.2600444884213631 1.9025832221932220 23 79 96
-0.6633486479529880 0.0104065754442240 1.9162132335973623 118 148 138
-0.5135929226655452 0.0193631308622202 1.9445826236837529 35 69 79
-0.3060508507355739 -0.2365335458572242 1.9223059214364191 112 162 173
-0.5748678006971966 -0.1801771980254459 1.9720975985315234 101 149 153
-0.4560916468723781 -0.1806701411836819 1.9734957599570129 35 81 97
-0.7357428336771566 -0.0474740522979537 1.8931808550735862 47 90 97
-0.3313297209982202 -0.2209518372273136 1.9486614755426743 37 89 110
-0.5589139961796237 0.0322810124065176 1.9436361898249090 106 139 144
-0.5636602856639937 0.0091922444503626 1.9475117409272140 109 144 146
-0.6358742143082290 0.2268740429112472 1.7796196806948978 107 142 136
-0.4732652144686989 0.0241804791881611 1.9361622248827879 4 31 40
-0.3008738172241741 -0.3005051716018133 1.8967859705495895 102 154 167
-0.3600814308871809 -0.2157932163823055 1.9660453512001426 50 103 121
0.7447496108827479 -0.0234022906278120 1.8619127084790577 88 95 87
-0.3120081504823462 -0.2797782117262364 1.9150496661365699 45 102 121
-0.3793533142583390 -0.2112126876487473 1.9713177585331754 108 160 181
-0.4030342049729721 -0.2100444029368275 1.9749578931364122 26 74 88
-0.3665773232198701 -0.2184810151650000 1.9674731018439771 37 85 107
-0.4876541126190951 -0.2222440069519236 1.9754571450721083 76 128 142
-0.5844870190532349 0.2185674505909718 1.8191059993041498 116 149 156
-0.3937820278694777 -0.0015876642527725 1.9189270030326218 11 37 50
-0.5332267926901645 0.0207041788514167 1.9457821858533888 23 43 44
-0.3969082416052187 -0.2497300877732031 1.9692899877601675 48 106 128
-0.5336921127151606 0.0202947578279838 1.9449745859965490 19 56 65
-0.4519777041040576 -0.2510339686204758 1.9780572842608208 26 84 108
-0.3799560665881747 -0.2720948312573900 1.9600164127395352 113 166 182
-0.5967251506158203 0.0108294282310466 1.9407591727994777 113 142 146
-0.5752397174676114 0.2028668601936256 1.8267643609833981 104 135 137
-0.6382978867257485 -0.0042133958199081 1.9270855858311815 121 151 151
-0.4054328852710996 -0.0100469734718093 1.9250778665031141 35 73 84
-0.7032483117720189 -0.0498787213620887 1.9043892851086632 118 156 159
0.0205537165018672 0.1387534822450635 1.8059860873554854 121 169 171
-0.5300439401355841 0.1481698879298415 1.8375593772732302 9 26 36
-0.7161558813158976 -0.0680716388455621 1.9062729623755723 106 146 146
-0.5486394077570834 -0.0126125349820410 1.9563558091593993 23 70 86
0.1636674315543242 0.0801015137630356 1.7748551048566603 95 152 161
0.6171257257100021 0.1310176844206205 1.8408788773493792 80 90 82
-0.6968863357059923 -0.0671299295218063 1.9140188359080181 114 155 159
0.5694384873512209 0.1181493889473026 1.8366268817425659 93 104 96
-0.5113787391897675 -0.0244148804663483 1.9564881713282027 98 147 161
-0.5723863747300897 -0.0249772072250537 1.9591307805285452 3 35 46
-0.5397263736581385 -0.0207597316786294 1.9618970421576347 121 165 174
0.5673649223159528 0.1095730283409882 1.8386445531661997 35 46 38
-0.1599461554664774 0.0082053226796769 1.7442959753110217 188 142 127
-0.5450574773224283 -0.0360098974000532 1.9635496558867340 115 149 151
-0.5333470755179689 -0.0364781292967244 1.9642303054462802 103 146 153
-0.7137026372423870 -0.0972608798827789 1.9153480153625444 104 144 152
-0.2866443197668262 0.0516572643381704 1.8413369658409158 91 62 84
-0.3791088234077215 -0.0738903230800970 1.9325869900624755 71 100 108
-0.7323217551131382 -0.1137622499590389 1.9038743535782685 36 82 95
-0.7666146222479628 -0.1486652791152536 1.8823828480459410 88 118 116
-0.6407608752882122 0.0555128446094381 1.9101360759516959 116 148 145
-0.2832758832468550 -0.1103777949281863 1.9231948691001597 107 160 168
-0.2826648914463644 -0.1064223404059453 1.9271962779013558 107 160 168
-0.3384389740762709 -0.1042968489175754 1.9308691788271692 27 76 93
-0.4492624198720691 -0.0649430336604376 1.9678934891242210 98 142 151
-0.4095752623661363 0.0361846119678054 1.9126283931256769 68 51 85
-0.5693270348240391 0.0427740162472064 1.9296945477030696 80 95 98
-0.4196097348859200 0.0269975078481470 1.9137924612923272 107 109 132
-0.3941340114642864 0.0147943519671466 1.9141876259185460 16 53 69
-0.4453799964937257 -0.0199827909774758 1.9393685069823539 115 146 151
-0.4584156721454971 -0.0230494345944564 1.9523702720712215 100 148 160
-0.2525629908652949 -0.1345830385408050 1.8694250813669995 103 66 13
-0.7660363504421671 -0.1873045454587376 1.8773114249695548 124 141 135
-0.2949589441134852 -0.1280415406969846 1.9282761425035913 30 53 61
-0.3107939450397681 -0.1375574342789107 1.9341630487736727 26 53 64
-0.3215858277848451 -0.1399423162040763 1.9359341139382973 106 153 163
-0.4554415247328976 -0.1293932749039026 1.9563204177972655 113 142 137
-0.7282820449608083 -0.2278032356628639 1.8988768703743668 95 132 138
-0.3121571088264443 -0.2476951947801792 1.9235953689256329 47 96 113
0.5857454064546774 0.1941197988603898 1.3002606892522728 155 145 135
0.7331140713146179 0.3616263150604832 1.6235013868741208 26 17 10
0.6174922957325928 0.1498237828071670 1.8337343792254164 101 113 103
-0.3614464794923587 0.1027162597064510 1.8204556133223098 64 19 13
-0.2038457085907027 -0.3024595237376483 1.7998565950588650 231 231 241
-0.6843018542375217 -0.3112350796085216 1.8981175632047977 228 228 230
-0.4219303286359493 -0.3626499066738659 1.9201985174261462 247 248 240
0.7322326922738625 0.2659066256718775 1.2999777065892828 143 133 123
-0.3274949412463722 0.0121501879863059 1.8600397788270033 61 40 57
-0.3276722408471092 0.0131614974969922 1.8612942042557941 61 40 57
0.5257558064060143 0.1501124319515562 1.4041466876052275 165 161 150
-0.3516378020034350 0.0235365750068371 1.8879770808194039 49 29 56
0.1056539361640824 0.2153253781760214 1.6396911860055681 64 91 102
-0.4843624518602245 0.0341202467221127 1.9339156052486564 118 151 156
0.1117664785487958 0.1658397696952624 1.4616844384509595 27 22 26
0.1266431341974789 0.2135850132506148 1.6191021380242043 27 16 20
-0.4585913537576106 -0.0318233003277833 1.9473066631859053 98 138 146
-0.1729449225255427 0.1191944991850268 1.6580307435235360 79 108 114
-0.2099859555649277 -0.1769925633268676 1.8292875490489287 183 144 67
-0.2940432058304510 -0.1002576423555333 1.9185729269939691 101 156 163
0.1761643079576758 0.1288755024265179 1.7455849560475805 68 105 111
-0.0751174183051300 0.1821641930300949 1.6423360749139733 35 27 24
-0.5524005231098433 0.1820066314587634 1.8337898554550041 31 54 62
0.5843231934065323 0.1825888335941432 1.8056984631000406 81 91 82
0.6017430434540905 0.1727407460047380 1.8314925090016723 105 118 109
-0.0579555315476506 0.1032329166295902 1.7665290481953597 111 135 135
-0.1241541500867240 0.1593931832875912 1.6382486716827978 11 30 37
0.1788823635873236 0.0490824241013609 1.7495787389929154 66 81 78
0.4683628581534676 0.0674668955195916 1.8046384151928201 99 110 94
-0.4485804136288798 0.1054800126684526 1.9023990322533240 57 104 112
-0.1935792436253510 -0.0421544197175235 1.8086291243949788 140 88 28
-0.5339735513558249 0.0517363909189736 1.9249888339557728 38 66 80
-0.2930541906197349 0.0508424527523211 1.8485420761380944 75 49 78
-0.0066835574548033 -0.0984720475465928 1.7002666590496589 103 161 172
0.5875344827263584 -0.0745785800742155 1.7619907298235917 197 191 177
0.7265796820716699 0.2767201784540185 1.3085485020998862 142 129 120
-0.7546097447025391 0.1363932922396133 1.7141245701418018 114 98 101
-0.0338992074641820 0.1995335574632927 1.6892435502292094 90 149 155
-0.2235036702195369 0.0678456145070815 1.5123960788262507 169 155 144
0.3882733473793755 0.1731444293627912 1.7494069385746207 94 110 99
0.6484803085106664 0.2407696808016228 1.8351717924016717 79 72 56
0.7290470065158863 0.2745453379476275 1.3599398483706682 20 10 8
-0.4845975637567779 0.1113733911724746 1.8444633362622251 63 48 15
0.4652185586388378 0.0932513771017045 1.3413818054280247 31 30 28
-0.4423853929832445 0.1108816061118056 1.8709899279588171 75 53 14
-0.3858402195446460 0.0696563184874056 1.8693516834406894 26 43 50
-0.5411004180702260 -0.2991529067528558 1.9432158849159986 73 122 137
-0.4106868593203608 0.1048965462372563 1.8307132687446996 167 115 40
-0.7621881969269532 0.2270996051462996 1.5802885590501849 67 78 74
0.0555459898629809 0.2383584649544918 1.8230030192059401 40 70 80
-0.2747821610838385 0.0219088778810311 1.8694425776074926 154 98 21
0.3722033843311012 -0.0575102369058294 1.7679456109699316 187 181 169
-0.1531348237308974 -0.1107210554833999 1.7157128335762213 142 139 84
0.2565644506152464 -0.1061424938713586 1.7168558422451974 33 40 33
0.2349376594908739 -0.0836417166977497 1.7471488420523953 24 36 34
0.0730095298166790 0.0490118127471786 1.7445072748406094 58 109 113
0.1893973580758084 -0.0836159282952983 1.7528144848166303 22 33 29
0.2467108476177922 -0.0960487836730932 1.7405987118009500 43 52 49
-0.5733374129274240 0.1880379919411591 1.8255196701434215 106 140 142
0.3138837877703530 0.0758721667506672 1.7759461447596567 101 112 104
-0.7356380466859852 0.0041816807431405 1.8877621217459146 110 150 152
0.5206562434039049 0.3200206460207540 1.4885926573322157 110 98 86
0.2282086392573013 -0.1013638833060701 1.7470111428313262 28 43 36
-0.7110915692638379 -0.0031326228397076 1.8918575633336785 20 58 67
0.2140666674281958 0.0548054247629293 1.7551044713844406 112 123 117
-0.7546155751901591 0.1183498004250665 1.3653617189924474 201 195 183
0.0129455910465218 0.1660026388325706 1.7964019391883574 49 74 81
-0.5180180972311211 0.1153863703443130 1.8820005158187023 34 56 67
0.1476768745954155 -0.1499706485546391 1.7192377494374660 135 175 174
0.1559503327587645 0.0557367910929428 1.7835397217355269 108 163 170
0.1563310717951157 0.0536683237300704 1.7804674949491617 108 163 170
-0.5778994573265688 0.1605852043267639 1.8233089235535425 96 121 126
-0.6623007127813095 -0.0086932335343784 1.9159405423247662 36 74 77
0.1653113046665282 0.2232511561356835 1.6833669092851409 57 98 104
0.6087855012516754 0.1883408650346944 1.8333962178221384 81 75 63
0.1896299387176184 0.0347171484622007 1.7627952114818113 122 138 128
0.1704505752246784 0.2182373545115026 1.6864294811702387 52 91 98
-0.5997738957962043 0.0069797685597289 1.9397417703593423 102 137 143
0.2030665528838653 0.0353699335324473 1.7665258519090172 119 135 125
-0.4898129251169466 0.0124589665264892 1.9451904153782691 84 124 136
0.1581694165054344 0.2171535693072055 1.6890920307840764 93 123 131
-0.6704092077715781 -0.0202351726381780 1.9143431345568751 58 97 102
-0.4654527945444036 0.0048929495032085 1.9446171850159220 105 139 149
-0.0406593121075450 0.1988461536915078 1.6831331224474053 47 88 94
-0.4117182673538657 -0.0254431431389249 1.9298958114465252 88 125 141
-0.0470629303569699 0.1683578777518513 1.6333589490928238 24 59 63
-0.3869715903532569 -0.0391226341758718 1.9280624923955125 96 129 138
0.0157941818190030 0.1298337352284946 1.8076521457679799 38 67 71
-0.5383425717329137 -0.0142669708880691 1.9596203884051793 106 142 142
-0.5694389182045638 -0.0167542395991810 1.9583301245163869 100 142 154
-0.7435671911288551 -0.0868293396754117 1.8972792021176592 47 85 88
0.1919806387878835 0.0810603421193864 1.7398897484328502 109 121 119
-0.6154502160301059 0.2229182567463674 1.7965472877884847 109 141 136
-0.7126652730189160 -0.0866002251388347 1.9089771087372909 80 115 119
0.2006206916700399 0.0808047530863732 1.7446142227300381 76 88 86
-0.7235450302094736 0.0369020303285885 1.8723904919704748 74 105 107
-0.6968053282602777 0.0453061031052056 1.8830792366007345 40 82 94
0.7427180986700543 0.0834979751893132 1.8967387573423782 12 14 13
-0.1797660061984945 0.0587648342978987 1.7325879317734976 98 142 151
0.1610909928313488 0.0901372143084559 1.7735939161035308 26 83 92
0.7455362117482921 0.0720241812216534 1.8955071673014088 107 118 110
-0.3850406143291361 -0.0804581607331422 1.9332988519720604 14 62 76
-0.5610486890817690 0.0644321184482716 1.9224836720595833 116 123 142
-0.6955624618642874 -0.1077238588638701 1.9167949096042247 109 149 159
0.4385151341318173 -0.0420611977320856 1.7723466185505361 190 190 178
0.1254219895251642 0.0140027559795974 1.7799473941905770 52 92 94
-0.4266716911835595 0.0465405373260551 1.9138999199632960 159 135 171
-0.4878234448333844 -0.0650889018652852 1.9659756406045230 16 64 76
-0.4602177956212866 -0.0781620631975160 1.9536885706123881 33 86 102
0.1309931779377770 0.1642294577609757 1.7089059644000850 46 86 96
0.1308637672824206 0.1635543915357437 1.7077633304488928 46 86 96
0.1236218546458579 0.1345986441153126 1.6604274308164828 42 82 92
-0.3795943309105501 -0.0931771825821766 1.9418101004642696 101 135 147
0.4302556729850593 0.0944390085990990 1.7974593010688482 26 37 31
-0.5584233895675617 0.0459659325297091 1.9272849884642507 54 78 82
0.1029153241141461 0.1547201753981089 1.7042918625348435 76 118 130
-0.1987203033720419 -0.2725233738041279 1.7526360521966120 166 142 94
-0.0884146801881315 0.1232728194718129 1.6601453799553183 48 65 72
0.4447439883926568 0.0932713460233422 1.7981110119310146 30 41 33
-0.7293838056945400 -0.1384676348493790 1.9046060307385739 70 107 113
-0.5854517702465912 0.2062474272114141 1.8197137431613684 89 127 130
-0.6737153092164749 -0.1132762422522393 1.9329954193861261 70 111 113
-0.0942980445437993 0.1238381485318677 1.6692629395494234 53 76 82
-0.3482448109496246 -0.1144728753881261 1.9337348136836285 98 151 169
0.5336800115259032 0.1101822941733919 1.8294486358416364 69 78 75
0.2090309974251598 -0.0901390160447563 1.7554193124324338 46 61 56
0.3915353941690939 0.0767534609124462 1.7875353322576328 98 111 102
-0.5956726927375577 0.0384647481742280 1.9322451863894983 45 94 108
-0.3215199873221028 -0.1217138055872827 1.9336843595087969 38 84 100
-0.1269435991555851 0.1258115555042232 1.6808968520597547 44 48 49
0.0914108196381046 0.1484453948546749 1.7133834648165216 38 76 87
-0.7367550564535380 -0.0149638556987137 1.8789359365142275 46 86 88
-0.6368176723349601 -0.1101933674744940 1.9562905745111492 64 105 107
-0.3595855204280533 -0.1204284191004461 1.9417552715764548 88 137 154
0.1077919861699453 0.1475716917920296 1.7146806655604434 89 136 146
0.1134442938389962 0.1481562304978562 1.7147508554796527 89 136 146
0.0976960329563013 0.1437893094307522 1.7098616912593825 72 114 126
-0.4887562848145805 -0.1109627860366490 1.9633416132441424 106 147 153
-0.6514645226893514 0.0171447440002472 1.9209407004742689 26 68 67
-0.5151579864624742 -0.1024698065238555 1.9725935783382973 112 160 172
-0.2593762632440824 0.0497527124028088 1.7887335651463880 116 71 16
-0.3165214593927895 -0.1388036769759685 1.9344176797439463 26 66 78
-0.3167705889842117 -0.1384786852408499 1.9347919287193371 18 45 52
-0.6167095927402213 -0.1118650365381049 1.9661236963858562 37 75 78
-0.3399678911892385 -0.1371503402681275 1.9422056553306064 11 56 75
-0.5247198647036997 0.0310460104899776 1.9400033271885446 114 144 144
-0.5949034446753677 -0.1093065653332291 1.9747617573080263 100 148 158
-0.2578702244633041 0.0523083246052277 1.7999681132249716 199 149 80
-0.5798811515578108 0.1897703831636239 1.8207903503774836 92 123 125
-0.3789820453811905 -0.1332394416702521 1.9530387453596119 102 151 168
-0.6356224885370426 -0.1306145804937213 1.9599261016620286 10 45 49
0.1305702040392947 0.1407280166840330 1.7234786268336544 49 89 97
0.1032069533194642 0.1362837165840290 1.7196903266841470 80 124 135
-0.5433590276058592 -0.1339416597363295 1.9706313893220311 107 151 162
-0.2790766258103197 -0.1849751743030372 1.9170773357439415 90 128 139
-0.6679806112244431 -0.1691005143455568 1.9431109994625908 82 121 128
-0.6356446711824056 0.0002293626107012 1.9231077140390591 57 96 101
-0.5508289522448747 -0.1399274543023981 1.9698573567347977 43 92 106
-0.5773470515009904 -0.1395893924224546 1.9716451556214161 26 82 105
-0.4052483110087574 -0.1480047315662224 1.9609916244229291 12 41 49
0.1342665626093617 0.1376886417263420 1.7283506406259297 51 91 99
-0.6682060734549318 -0.0106669627044431 1.9160672264274088 43 91 103
0.1341016512457501 0.1376798653013515 1.7283215252020299 51 91 99
-0.5989564507458801 -0.1406653053499297 1.9727655726801603 60 104 115
0.0144462702573140 0.1673021647803198 1.7815658425486132 98 133 139
-0.4025383639226811 -0.1496237901377823 1.9613593938432603 85 112 119
0.5782749865715731 0.1944493543863112 1.8061146805222177 29 36 29
-0.3322429922447846 -0.1982959569365454 1.9577706968606843 28 77 94
-0.2938105990964763 -0.1923864489336826 1.9232947595544849 110 162 176
0.0093202360354909 0.1672349064168108 1.7850718314217955 104 137 144
-0.6822113336628604 -0.1866239796925965 1.9359443950589692 106 146 154
-0.5765577191990495 0.0077907545219976 1.9442377199349945 19 63 74
-0.2989255944071195 -0.1869337057400147 1.9302583255701384 106 153 171
-0.5739797471277817 -0.1514316350495432 1.9687129083476496 57 105 119
-0.3580077205946424 -0.0190701778603754 1.9111162790644751 94 140 153
-0.2796795371788390 -0.2098330026187218 1.9089466678410696 60 85 81
-0.6083578016548019 -0.1557371121971353 1.9657518964678693 57 107 118
0.0238176487360799 0.1658712804046311 1.7893494444624107 95 128 135
-0.2237490838479246 -0.2709307004551897 1.8533444999982986 230 234 243
-0.1375206262602678 0.1052797497179227 1.7013955884005154 84 125 127
-0.3011943928955967 -0.1955011369051441 1.9311146438473874 95 147 160
0.1694504008943618 0.1420525697266206 1.7500815485715540 86 121 127
-0.4778359850619897 0.0060003881962832 1.9472919644505038 110 143 152
-0.0085884306728275 0.1579478725639637 1.7832002394847235 112 144 143
-0.3785105441257612 -0.1701010748293486 1.9599835301198130 101 154 170
-0.1265127709168837 0.1024078210360705 1.7005574954915224 79 119 131
-0.4611886936064918 0.0009751240691247 1.9417411376858029 103 140 148
-0.6169714947651346 -0.1672674484923856 1.9663659743479209 47 104 115
0.1693911877774849 0.1371667675615129 1.7484033872349953 42 76 85
-0.7439758027788318 0.0291358643885636 1.8570668195872346 67 96 94
0.0796629727696257 0.1236245509399772 1.7309847867887131 33 77 88
-0.0032528945760445 0.1576629316712846 1.7883464381732450 119 150 152
-0.1306679073201852 0.1017120026997709 1.7087241656116177 77 113 125
-0.6660530711702071 -0.1936266809163518 1.9438031832661651 32 71 78
-0.0068572891333916 0.1526207186731101 1.7871656579235315 116 146 146
-0.6237886174427921 -0.0215020583060779 1.9362770678562236 33 71 74
-0.4182484824284600 -0.1656641873330934 1.9668118823036838 43 99 116
-0.2583230839863796 -0.2624202385913859 1.8739299079679659 91 139 151
-0.7122577636728037 -0.0560685375138334 1.9048508337742669 105 150 155
-0.5712978365163430 -0.1681831946052513 1.9705202551187018 99 152 166
-0.6525326096305026 0.0499884148397491 1.9030405756174344 30 67 76
-0.3775268567710417 -0.1729391289383651 1.9647929000986712 114 163 178
-0.5043058532743702 -0.0178617558383646 1.9498003265685393 92 150 162
-0.6065803432571844 -0.1738772239943549 1.9695861046852459 126 175 189
-0.4326859136898978 -0.1731079279573402 1.9681295498506819 80 137 157
-0.4418493877932766 -0.0214774393827684 1.9454585503901807 24 45 50
0.0157645597496053 0.1524765373730097 1.8010891598071546 105 145 147
0.0115973197618633 0.1500856788767273 1.7996536087003425 32 54 52
0.0214128309625467 0.1519163917356392 1.8030858909519420 114 159 162
-0.6704408797406360 -0.2081773299815560 1.9411963682619620 32 75 81
-0.3978168326162284 -0.1737099211683395 1.9705633341752871 117 143 140
-0.0239111944462750 0.1339288928621143 1.7797639891455324 106 127 130
-0.3128821147650792 -0.2111516984315536 1.9348202743168232 52 105 121
-0.5619886271743604 -0.1754435343364280 1.9723353284792200 37 86 101
-0.6081434065942196 0.0514564229014378 1.9155433455731510 26 44 46
-0.6525173171961767 -0.0509894123545966 1.9291706664839137 105 145 147
0.0823443036998887 0.1041196842324236 1.7333582778406789 87 121 133
-0.6873113079335035 0.0315653700573678 1.8944795854324710 28 61 66
-0.3911436948199137 -0.1805573607346988 1.9683638272419079 101 150 167
-0.4249384949883274 -0.0408840964186687 1.9371385764529589 32 76 89
-0.5637880973882559 -0.1794477477351998 1.9719540946302865 101 150 165
-0.5054630011720355 -0.0250030299240039 1.9602175855769393 4 50 63
-0.3553684327215904 -0.1918868583948659 1.9598808192792831 77 128 147
-0.3085415392677288 -0.2281004222686662 1.9255162973828208 29 83 95
-0.6954018442694019 0.0284243267753228 1.8929398820854588 13 53 61
-0.6679422558234072 -0.2179733280734159 1.9405880797006361 119 162 168
-0.6942618229988892 -0.0640966038771836 1.9217622299889201 109 150 154
-0.3922814208405185 -0.1842826285027708 1.9687376239233911 23 52 60
-0.6327215289263899 -0.0436390780841921 1.9428276395599091 36 70 72
-0.6740667863390232 -0.2258301895966206 1.9356975982867581 56 100 103
-0.3888794161173038 0.0371365695583421 1.8999542655376978 122 103 135
0.1070387083372259 0.1055063518481740 1.7423132199595583 120 158 169
-0.3446522315291187 -0.1974460304122437 1.9586406991137841 97 153 168
-0.0240894091892144 0.1274252884557956 1.7813242792832662 64 90 91
0.0849879689404733 0.0992804343161610 1.7352968352499025 94 152 164
-0.6817234054318380 0.0270164307599445 1.8992579491472463 111 146 148
-0.5279039664864855 -0.1855419628240349 1.9769980150063335 65 113 125
-0.4129578197064060 -0.1853099504813363 1.9757582952684716 105 136 141
0.6299323139762537 0.1906986049153636 1.8599673919972068 73 62 56
-0.5384279711986635 -0.1928392790201084 1.9711225972469621 106 153 163
0.1671302389198586 0.1168373008558821 1.7653593219657173 84 127 134
0.1735221743612184 0.1130908119430083 1.7595754910732484 95 130 136
-0.4138359465276067 -0.1899244539444212 1.9743368852840375 15 36 41
0.1454255615305228 0.1126551812735987 1.7610127273600154 39 86 94
0.1865193888658226 -0.0885971692583496 1.7506304197540317 75 88 81
-0.3133930704659116 -0.2364935333285343 1.9328712554159759 39 92 108
-0.0279244645668853 0.1226114352125903 1.7869792544240333 102 127 131
-0.5591782275542708 -0.2158604476914069 1.9583855777441905 122 173 192
0.0329292892015099 0.1364775486125151 1.8079360636644353 42 72 74
0.0714938451238736 0.0893314408502242 1.7381914206842475 34 78 89
-0.6367795199934793 0.0329473702568475 1.9230273837235505 117 146 141
-0.4235811950557354 -0.1972023921634952 1.9792256108171054 26 70 83
-0.6280637745906390 0.0315701615012708 1.9231602847730147 58 103 109
-0.3784653158332774 -0.2033530449274780 1.9726933113631553 64 116 137
0.6313733861659344 0.1691886232823787 1.8511667732336190 96 92 81
-0.3250813901647562 -0.2477585500307112 1.9333659196711723 12 61 75
-0.7004673465562860 -0.0966504216176525 1.9183819417854342 54 106 120
0.1744748274430406 0.0994640687229044 1.7621657198950782 66 90 94
-0.0992685727374841 0.0776862969403429 1.7391495655227922 48 88 90
-0.5650114317420192 -0.2251519318431222 1.9571474806847935 107 159 173
0.0781928555167045 0.0793822474014459 1.7406067763820756 105 164 172
-0.3276000137597543 -0.2459571448998930 1.9357510299608418 108 167 181
-0.3633266612989390 -0.0818878704638312 1.9305896300267533 85 128 145
-0.0406883673347634 0.1054885016325440 1.7843709477327250 65 112 118
-0.3702445736508391 -0.2134563814878362 1.9690987670778159 93 145 166
-0.6430049588067029 -0.2873440651476558 1.9193128123753280 30 77 87
0.6607057535643185 0.1682399915761605 1.8550134887563516 77 66 60
0.0811670319842511 0.0793096393830979 1.7428217464600988 64 123 131
0.0307892286488287 0.1203271562651378 1.8086021876631357 40 74 76
-0.3100389869611545 -0.2982220068196308 1.9024059018417174 129 182 198
0.1926809950240676 0.0777306806715535 1.7425129168539228 38 50 46
-0.5650740571625251 -0.2504603758344549 1.9515780868025034 64 117 131
-0.5196248857984248 -0.2301101737864189 1.9695881034028562 80 130 141
-0.6612547203559556 -0.2996331216293483 1.9122920548431448 108 141 146
-0.4489093457691345 -0.2268309585106216 1.9763489379043810 29 88 104
-0.4578517509705438 -0.0637850740086490 1.9604650240781722 48 92 101
-0.3648716917654757 -0.2487174222532968 1.9575963327590367 101 153 167
-0.3765616014721462 -0.2529299343801071 1.9595833297104597 11 39 51
0.4428145404461289 0.1124428353747826 1.7915085710695264 109 122 115
-0.3446524173866881 -0.2992876028162854 1.9182173112431378 110 162 175
0.2161277232871110 0.0792454321887982 1.7507716566652249 34 45 41
-0.4925108407499892 -0.2399891571376547 1.9746432380790770 76 124 134
-0.4929864500110425 -0.2410494417070756 1.9737042089927459 76 124 134
-0.3755350541715829 -0.2571400686953863 1.9599148683848873 105 162 179
-0.4127019888718457 -0.2546044929386254 1.9743346439692628 90 149 167
-0.1748838818995269 0.0505071065374220 1.7369469545064922 153 159 113
-0.7780096482112260 -0.1619281827134669 1.8737374143634364 133 142 137
-0.4579116987755675 -0.2714500371101211 1.9790128641878713 71 123 137
0.3348743339529280 0.0909502086999064 1.7835501015861566 30 43 34
-0.4128717177464131 -0.3157371871666986 1.9425045438540636 121 173 184
-0.5307420317732093 -0.3297249738109734 1.9426539516436396 51 76 72
0.2462960585340420 0.0702443265174279 1.7611226480474547 94 104 96
0.4409391189823219 0.0974715745754376 1.7964905260996471 31 44 35
-0.5836804056346722 -0.0697363165188721 1.9708951605430576 62 102 110
0.1991910244497117 0.0592774847897318 1.7505514538336000 58 71 64
0.2788092988100705 0.0724483602908430 1.7691735275469018 98 109 103
0.3004292573636592 0.0746780527208172 1.7717986705949034 91 102 96
-0.2041386930835860 -0.2286802263809373 1.8023036726413619 146 115 60
0.4633128745049382 0.0969969621629223 1.7985155290355712 89 97 86
0.4664529703091697 0.0990237647533532 1.8021344341569965 95 99 85
-0.5909776333052884 0.0189506269801565 1.9375491223028227 17 50 55
0.0856658244811908 0.0519055468022008 1.7486520759343080 61 110 114
0.0855271265103164 0.0521055455279802 1.7489885344119913 61 110 114
-0.5915366870989052 0.0185187727768989 1.9369578674634098 17 50 55
0.1768643121509774 0.1245657027130363 1.3131184022645730 32 19 10
-0.5549486770808185 -0.0780438640281165 1.9726135188513967 81 109 113
0.2270112910674459 0.1378560368026310 1.3456833271907003 143 130 122
0.1334012785181332 0.0597019676996717 1.7690580247544920 112 162 169
0.1874020310139042 0.0474367255992834 1.7509030548846565 45 60 55
-0.2392184054661512 -0.1817416659249440 1.8622210666466261 108 75 32
-0.4830864625987665 0.0197249029769907 1.9397742518877128 101 135 144
-0.5839488940323763 0.0161421347602736 1.9390016391905751 95 124 128
0.0822502759488021 0.0410373561961578 1.7507068346197867 100 148 150
-0.2350205779937640 -0.1874568663999950 1.8591856900416550 162 129 78
0.3672666962378767 0.0747702886052276 1.2856678740617522 27 18 11
0.1417007454175039 0.0577940151512691 1.7755320176530924 113 166 172
0.1417529332605802 0.0577569332712951 1.7753932499537244 113 166 172
-0.5572596140368102 0.0163231296838403 1.9471344221339388 33 61 64
-0.6028152515163548 -0.0929199616250175 1.9677387412824301 34 73 80
0.6727723160377558 0.1447890050353987 1.8862117941837229 74 65 58
0.1382955011458427 0.0533785423529512 1.7759598881602463 111 164 170
-0.6390882216589624 -0.1075527297781779 1.9556115197022874 116 156 155
-0.0523319840997729 0.2055416081678147 1.6446691187616611 99 129 131
0.3372434374362829 0.0634484312361080 1.7839970238938987 128 139 131
0.1680611888299680 0.2228662542522191 1.6871588739351755 101 144 150
0.8385256110841895 0.2162667509688564 1.6182950198066419 66 51 46
0.0288910600851409 0.0142178701979035 1.7322559044254924 63 120 127
0.3080671029277594 0.0549171809747732 1.7806808540151520 116 132 122
-0.6661076950578054 -0.0173140531262427 1.9152250231126442 120 150 150
0.0174974016946533 0.0114221746445876 1.7299986235274813 58 115 126
-0.2840226572598114 -0.1482397126625240 1.9271558088424656 99 151 165
-0.2847865063145652 -0.1503292131721448 1.9249640500447227 99 151 165
-0.0576493273159767 0.1825053776145451 1.6301663085986871 13 41 44
-0.4918708568785995 -0.1152285696052641 1.9636992513617704 54 103 117
-0.7650657289259311 -0.2075100866640184 1.8762671071935053 90 120 120
0.1097954952897876 0.0269247719976050 1.7535324920598419 109 158 163
-0.7085098661442244 0.1995078171583310 1.7043045480738348 56 77 70
0.0067209933336198 0.0056815172198781 1.7306856745079999 61 118 129
-0.5197748959660987 0.0067195424987257 1.9461757844774266 105 133 136
0.1881689844733295 0.0260783588065293 1.7553700480889893 44 60 49
0.1168611004229986 0.0333683439867910 1.7694615097652626 102 136 138
0.6475430166306577 0.1101822192225116 1.8574076275938467 47 59 49
0.1284107865169061 0.0359560758410072 1.7731091491812319 107 155 159
0.1440365160149873 0.0423622983865826 1.7816333036894183 113 166 172
-0.7604114625835801 -0.2083652397947929 1.8822601416649494 107 136 134
-0.4685139144289691 0.1546462355350897 1.6194926948852348 124 94 86
-0.6361439878893229 -0.0132873749793770 1.9298036307006508 113 143 143
-0.3373960147148503 -0.1446943195294783 1.9413911248423679 47 103 120
-0.6468089798399022 -0.0220588814907253 1.9245862002157268 27 64 70
-0.4684677015019634 0.1561968636973687 1.6313318658871507 63 30 21
0.0350753156706496 0.0023348182837363 1.7358096140721577 99 156 167
-0.3325386660528026 -0.1417275295862976 1.9480970120462560 106 145 150
-0.4745301275813603 0.1524901881681693 1.6391052546940807 47 20 13
0.1251800435210452 0.0310298010122604 1.7754655900938829 114 154 156
0.1443149345448932 0.0373734599048577 1.7842350722025784 70 123 129
0.1441477244409055 0.0372454720303755 1.7840772653115280 70 123 129
0.0417638177477369 -0.0034254587472405 1.7328027922356208 63 121 132
0.0046275816645299 0.1957298560789946 1.7352525159386936 92 116 118
-0.7618427797812017 -0.2331423567825523 1.8754127092214556 220 226 222
0.1415208911246420 0.0297687867255524 1.7828105313910376 69 122 128
0.0441634319936491 -0.0070873883735215 1.7372613226863567 111 171 181
-0.5838757419943145 0.2117918220836111 1.8164550734880656 42 81 88
-0.3388274705190784 0.0851476351527356 1.8745788097194176 175 127 107
-0.6743810251119225 -0.1712096425269451 1.9394694233812122 124 159 163
-0.0930920231690325 0.1324159798185169 1.6639429856980765 78 75 70
0.6571525832828202 0.2391190568786102 1.8224343188373813 57 49 36
-0.5633659694123646 -0.1402125929836884 1.9692924159943230 51 105 131
0.6943534055691597 0.1154275080006209 1.8885775986523026 41 49 38
-0.4464099122293481 -0.0130123004231756 1.9393251641890044 83 135 149
0.3942770888520093 0.1806103661139539 1.7469067896490209 113 124 116
0.0264576499003894 -0.0141943444066924 1.7349475555925022 100 160 168
-0.7346307554752776 -0.0563461749848542 1.8966677225055355 112 150 151
0.3891795924374614 0.1779995596174968 1.7437942700394016 110 121 113
-0.0231673591126803 -0.0179270908161395 1.7328376086096291 31 97 111
-0.2696791352517094 -0.2127724893321379 1.9001399604502032 103 143 155
-0.0479283679119752 -0.0047113911316000 1.7532850326831251 43 105 116
-0.4809717253882763 -0.1508224384373890 1.9631357881350859 115 168 184
-0.2835814503320128 -0.1996323803470548 1.9164039812958331 101 149 161
-0.4895270771666715 -0.1476601967426686 1.9704603169748482 125 165 167
-0.4108303361316208 -0.1537747667662130 1.9636762337650278 96 124 128
0.1793317145631881 0.1583811213499861 1.7347186479227872 112 149 155
0.3309682806983587 0.1553319636056480 1.7257635649424004 119 127 116
0.4207675736893224 0.0342326386832122 1.8047680716588981 100 115 108
-0.1595962976899487 -0.0272259483382233 1.7417432990740025 123 74 59
-0.5446620920795020 -0.0057575978251446 1.9556827659512372 98 140 156
-0.1264500345800960 -0.0363599497245593 1.7300503696409122 53 108 115
-0.4466807719715906 -0.1536996203290321 1.9662918127470803 81 136 156
0.4694278341772893 0.0345559548721166 1.8100246538357034 95 110 105
-0.2735181405559013 -0.2157480616067280 1.9067242981261026 46 94 106
-0.5976174958869787 -0.1547528426657594 1.9700395654299918 44 92 106
0.4828215795389627 0.0376154364851201 1.8148277948047966 48 64 54
-0.4836830533789043 -0.0052521534105681 1.9547350304834279 40 77 86
0.4900537029536104 0.0289949646397494 1.8054133398781413 115 131 120
-0.4650101661468806 -0.1540730573002823 1.9691215424388546 98 144 160
0.0000090616446841 0.1718553626751203 1.7852183561871431 42 77 81
-0.2527889695576996 -0.2487537787783526 1.8764272628055276 113 168 188
-0.2628755380093776 0.0243619156023984 1.8286839097493515 161 106 24
-0.4643322733065919 -0.0122416186898677 1.9484080937397212 106 148 160
0.7407108128924962 0.0975011137986515 1.8966026848280033 74 69 65
-0.5453035692629751 -0.1536541984534703 1.9721995073409064 13 56 63
0.1388666203196295 0.0000249358832355 1.7883640223508526 115 153 156
0.1523586808887260 0.0030938477894846 1.7941844735037589 96 133 139
0.7267490174286451 0.0817351672005355 1.8892560449371536 58 65 57
-0.4217245825920117 -0.0256042680969950 1.9342320112826139 101 119 119
0.1696328970930165 -0.0737298652888128 1.7454166627480991 13 28 25
-0.3088485710312341 -0.1904026800625264 1.9414336528060436 100 148 168
-0.4088434174729280 0.0486058177385989 1.9128301684112876 59 54 74
-0.2850696532374263 -0.2197783943692546 1.9128537234745391 98 150 163
0.0089566506137917 0.1628774981802909 1.8012733183564158 64 75 79
0.4980399467421136 -0.0438157473483101 1.7787173501539448 113 116 105
-0.5587135310543134 -0.1652740375193878 1.9715179943806500 113 152 157
0.7317629373453329 0.1996175517964673 1.8391943237788062 79 70 65
-0.3159440206453482 -0.2011650764172906 1.9366369945073703 49 97 111
0.5599332000513606 0.1689874170186204 1.8078619584726634 104 115 109
-0.2925736829199836 -0.2285639597716251 1.9140847727485644 110 154 165
-0.4522735655866812 -0.1682037551707500 1.9735362851240250 19 55 67
-0.7331106121576935 -0.2699754121733448 1.8827734782072165 224 226 225
-0.5040557162356657 -0.0167175200195786 1.9558505467568450 4 42 61
-0.4905027989863137 -0.0139797145369006 1.9590098331124479 38 82 91
-0.7092997533958986 0.1563001616076149 1.8446914111027937 139 119 128
-0.6010969237521308 -0.0245524528651141 1.9528658615468073 118 152 154
-0.1914027230622240 0.0732919541501447 1.7197007314926340 20 10 9
-0.4083772758595829 -0.1858985022145302 1.9733800512141713 94 122 125
-0.4084873136335566 -0.1867482430634138 1.9724015080239048 94 122 125
-0.4659656671835821 -0.1897779154281869 1.9716724797408565 70 94 104
-0.6271888574170658 -0.2062711623024411 1.9593658969629713 111 161 168
-0.4653996964976442 -0.0239294728638123 1.9535065557570730 86 111 116
-0.6361616792194650 -0.2148473293076927 1.9517882722106132 18 61 68
0.0471596852907702 0.1206092866975709 1.8033110733548199 40 95 102
-0.3580335775017776 -0.2014603114913893 1.9645536979872507 96 153 173
0.6384062077996098 0.1590829182649126 1.8515538609360209 96 94 82
0.0244235236085007 0.1125981485413040 1.8083884291452272 67 118 122
-0.6190429011493314 -0.2262717902310211 1.9527501874305206 110 163 171
0.1716172312599980 0.0799208098258123 1.7719066812115047 38 50 48
-0.5292289322760078 -0.2112752041736841 1.9665287472179316 117 167 176
0.4420930608265300 0.1013787856454912 1.7974788806371302 89 102 93
-0.5659484678167818 -0.2293353616809766 1.9585648145057848 69 118 132
-0.4573729611571293 -0.0339655908566969 1.9539150382871919 108 152 163
0.1894284275914604 0.0567056127655826 1.7488318547151298 110 125 120
-0.5670837289506453 -0.0319157697066063 1.9614156649891539 99 128 134
-0.5122467975178291 -0.0328212606368799 1.9624775619862542 102 149 165
-0.4458857782134971 -0.2191185772564151 1.9791104551901966 102 158 175
-0.4155810387441750 -0.2236177215683811 1.9765106521366420 35 88 106
-0.5910207675219362 -0.2668792505132150 1.9408682080111495 75 121 136
-0.6734203656526734 -0.0720467141738843 1.9256356623205966 65 96 98
-0.5660872134864113 -0.2600576243981824 1.9471786574365701 118 171 185
-0.5350584136151861 -0.2525377509387229 1.9553856764392066 42 88 103
-0.3936967830044856 -0.2295174077765700 1.9762795683202710 76 96 94
-0.3668498783646530 -0.2832607467677740 1.9364563600707942 97 139 155
-0.4017208540498163 -0.2449419610665195 1.9718343632629376 102 159 179
-0.5139560498873396 -0.2572312311285176 1.9642638323765511 105 157 170
-0.5234484079113795 -0.0418658651499782 1.9635339537536247 19 67 81
-0.3913716269139536 -0.2561709010688437 1.9702568634841735 115 159 170
-0.3762548240295308 -0.2885814498396790 1.9433276986380803 103 161 181
-0.7034389473991232 -0.0888499721303725 1.9175353452946315 57 92 98
-0.4588175087653787 -0.2542489042704252 1.9766197837883825 64 117 133
-0.5470690062068089 -0.2883478022050240 1.9479428957069707 105 161 174
-0.4959886973441854 -0.2562702723838577 1.9760116497303328 130 177 187
-0.2148753611801364 -0.1550428333764683 1.8416412015759183 132 93 18
-0.4621338920532148 -0.2613626108557762 1.9749378663288275 110 162 176
-0.4608883819170114 -0.2596242904050115 1.9763173807218228 110 162 176
-0.3808745110334448 -0.3106398591769718 1.9350169875384842 121 168 178
-0.4034904884530523 -0.0774214852639264 1.9333408603082649 0 42 57
-0.5348194283224701 -0.3000934514362432 1.9503576017405522 63 116 132
