ply
format ascii 1.0
element vertex 708
property double x
property double y
property double z
property uchar red
property uchar green
property uchar blue
end_header
0.1860087885183200 0.1296892347007862 1.4314003456639386 12 3 0
0.1113951105449546 0.1360900392016624 1.4176045977702720 145 114 132
0.3218300392044514 0.1515427461898959 1.7014107399473186 103 105 91
0.5811403895493726 0.1860200318713412 1.5949107555600504 66 69 62
0.0893369360458630 0.1915747237849213 1.6035000684264460 72 43 71
-0.1559750807772667 0.1141724950728937 1.5497374882305375 162 122 148
0.6293242507437350 0.2208755334410358 1.2663851107153046 98 78 67
0.1404809197597066 0.1656950830075781 1.4659986279467287 50 47 32
-0.1316067488584622 0.1569654052467866 1.6383942790287778 51 80 96
-0.7688467483964793 0.2350895371736827 1.5608900594797348 21 65 76
-0.7343348240065802 0.2571263797879892 1.6379773368046828 118 162 171
0.6552473066158212 0.3524827801608543 1.6190424554824958 119 97 84
0.6423674497899593 0.3556561106845373 1.6247791719800608 108 84 72
-0.2085496221734880 0.0850774242148747 1.5087088811910203 239 172 153
0.2637879638830961 0.0900849915975254 1.5498074652863070 55 68 61
0.2637879638830961 0.0900849915975254 1.5498074652863070 55 68 61
-0.6683748338990341 0.0029552154155651 1.3050798426126560 31 60 66
0.0810686052440017 0.1399600259729458 1.4289711817584225 64 32 47
0.0181677013086086 -0.0313674475370761 1.2792361820729328 113 134 135
0.2079809789751228 0.0495411951208556 1.2460018705137881 140 122 102
0.3046614766768453 0.0970801035921020 1.3339438944299469 41 13 2
0.0161066157685296 0.2380540486353431 1.6778547035778477 119 163 166
-0.0300789801815137 0.0508573523397664 1.3807491945041213 108 146 149
-0.5266908882061182 -0.3916854048652839 1.4455182732913003 92 76 77
0.6481378042138115 0.1691885464407462 1.2030432715218091 70 51 44
0.6015838274204319 0.1714064474955495 1.4170510003174526 111 119 108
0.1353144987663270 0.1833884521177889 1.5409572727929761 31 32 27
-0.0062122074370020 0.1404120880493556 1.3926058626742572 163 114 100
0.1065758431666716 -0.1988417340157988 1.3980563687285621 169 161 148
0.1041208015541268 -0.1936987797922617 1.4122462367506683 22 11 5
-0.4331861054043272 0.1543211761387619 1.6869041152581135 234 189 168
-0.5357031319020804 0.1541710676345986 1.8704713670733271 216 213 208
-0.1459317069748063 0.0991530617747971 1.4394521068354595 57 39 27
0.2659952421827426 0.1050758832764685 1.4645691476745997 97 114 106
0.5860219532612679 0.2941606999738515 1.7171607368949544 100 85 78
-0.0046016464236829 0.1232681278114222 1.3753137411749863 110 155 158
0.0132248551386506 0.2253856345622034 1.4413509093195334 109 75 92
-0.6238945237181511 0.0609658609219476 1.5096853290456056 158 109 30
0.2091666641958987 0.1421254009391555 1.7244304252468305 193 198 191
0.3227852531327503 -0.1835154659100635 1.3187220246481015 32 15 7
0.0254231798542935 0.1305730110003872 1.3577784777082906 79 128 133
0.2694854325240628 0.1317088753517251 1.7738390897384173 205 198 188
-0.7063268081952335 -0.1356524577952730 1.3638428548887918 20 33 39
-0.0698598800224753 0.2203157204467026 1.5291206639286961 195 163 168
0.0172990265360778 0.1202620963326253 1.3484938641539335 91 126 130
0.0010523199731224 0.1225622332808031 1.3454271832293192 68 112 115
-0.0380687731740144 0.2497557823976000 1.4778198421824704 187 157 155
-0.5478899128626294 -0.3643719338884768 1.4308628535567607 195 189 173
0.1089970859887877 0.0984565881541787 1.3972909022650404 81 58 86
0.2070111570834820 -0.1640914319914771 1.2950739549043657 31 13 3
0.2026464067151919 0.1169839659895027 1.3762759074590261 37 25 13
-0.8015199382250190 -0.1856140086183093 1.3631799524635970 203 191 177
0.5055286238553768 0.1932969886693397 1.7422512588950445 117 120 109
-0.1754360499829883 0.0844907832490070 1.4350751121105507 54 37 17
0.5851889408772850 0.1543847118689570 1.3121973535503433 58 49 42
0.0280569917296645 0.1348099776298839 1.3442141602249216 64 109 114
0.0281806342048755 0.1347701945612113 1.3443691804434281 64 109 114
0.0039548771482685 0.1327279586634975 1.3530043700858390 118 162 165
0.0451486825263833 0.1350284229431046 1.3489200630103186 46 81 87
0.6597093348613421 -0.0454834959198270 1.2722785293246948 21 20 16
0.0266465424197265 0.1367644289150533 1.3464926568178053 115 165 172
0.0078553189505901 0.1361636468045120 1.3535445025114163 117 160 166
0.5766996903073306 0.2533161500544543 1.6917611957675116 96 102 90
-0.0227840154904273 -0.0515774985677845 1.3205093463193658 103 128 125
-0.0324003293805776 -0.0549688118800742 1.3279040972990042 97 126 122
0.0093002701002337 -0.0226227254701621 1.2881796791788094 36 62 61
-0.1483178077921803 0.0950917686536309 1.4419189639715821 32 13 6
0.0459244062815362 0.1421120852282472 1.3587747302202051 82 123 125
0.5865737583168885 0.1576898974776140 1.3530559627386074 88 76 64
0.0307487855587463 0.0116204866981495 1.2920637291209820 50 75 79
0.7323212959485246 0.3490728090563657 1.5910452167069236 96 86 77
0.5766894368773912 0.1591700054820291 1.3616209902416834 37 30 22
0.0691488178464205 0.1282066890900759 1.4272277434182561 112 84 98
0.3013044158351367 0.0485320028436041 1.2504265831577532 117 79 56
-0.1175938602804924 0.1074276013943195 1.4755357776919820 174 140 154
-0.1061957843859528 0.1099391112991180 1.4700261727718749 158 127 135
-0.1061957843859528 0.1099391112991180 1.4700261727718749 158 127 135
0.7460930455554433 0.3508187803025415 1.7838129610636166 118 82 70
-0.0620908426703297 0.1213967578838283 1.4545093016790964 49 25 21
0.0143856454753316 0.0265171944960474 1.3084894464619576 59 87 88
-0.0833935372160273 0.1167593582400585 1.4684225760201981 145 119 122
0.0876256168399876 0.1385956239909633 1.4281467407851904 106 75 90
-0.3968077687393936 -0.4160280397252057 1.4723728370520914 168 158 148
-0.2071095404761235 -0.0261515160580978 1.4175518370562663 93 113 114
0.0353894375171695 0.0307463671930459 1.2995331164822721 43 74 77
0.0417642677402287 0.0476043956936064 1.3067777156869975 47 80 85
0.0418366367944880 0.0476601024515142 1.3067148782986768 47 80 85
-0.1139436641106096 0.0017984952989042 1.3897912450909358 27 55 59
0.1781439582888085 0.1335886626157755 1.4842309352460121 98 108 100
0.1781439582888085 0.1335886626157755 1.4842309352460121 98 108 100
0.0151591762551495 0.0369701213746499 1.3099699789764334 102 130 131
0.1395356872231296 0.1590113398034193 1.4626960381256264 45 52 44
0.3233690488230788 0.0816440408657406 1.2799692653295265 41 8 0
0.0423164002147122 0.0428190190642416 1.3040742917471124 56 95 100
0.0397322061829130 0.0444062793722698 1.3052346021929002 110 145 151
-0.1319194213992477 0.1238889028633601 1.5572885312118165 137 98 117
0.3759690416572166 0.0697747467828184 1.3094140647756864 72 84 74
-0.1088666722220689 0.0024332524067584 1.3837144697120465 43 25 15
0.3655022990993110 0.0732564376114867 1.3109105169542092 46 27 13
-0.0959892484290015 0.1358357257142931 1.5456942297029528 167 133 150
0.4512256494279989 0.1202374307542002 1.5921421185036373 108 121 112
0.4512256494279989 0.1202374307542002 1.5921421185036373 108 121 112
-0.1133333358213805 0.1292386928837379 1.5660651478452674 47 15 30
-0.0901790004918925 0.1363387687623944 1.5502553578504104 138 104 118
0.3692663567819991 0.0764170298503953 1.2944855307714922 39 17 6
0.6699648859150332 0.2617831037336339 1.3130673714129903 46 19 10
0.0793912658425520 0.0840067577549574 1.3324930332417957 95 125 135
0.3113537824416912 0.1394971639444545 1.6169174212237989 41 52 46
0.1271962821152485 0.1779323230276159 1.5202854518987798 130 137 129
0.3159462801154531 0.1455946098458490 1.6165825802637577 111 124 115
0.1753931088185724 0.1125374257603402 1.2897144198612722 170 153 135
0.0972095008190174 0.1835964044785416 1.5266315787396452 39 37 40
-0.7852621687880947 0.1945361318278317 1.4830765455336292 100 139 144
-0.0596381629765175 0.0576332597256613 1.3946960012245340 34 62 66
0.0057685127293115 0.2187375183721982 1.4469330547600530 148 112 126
0.3209615327499240 0.1550810150173379 1.6278866605001712 97 108 100
0.0462551922361343 0.1016920525975247 1.3190395149540228 83 126 135
-0.0655958686353834 0.0432895703830394 1.3972286879055646 37 66 72
0.1036058902425630 0.1907754334382397 1.5491632897569447 68 39 59
0.1034808852953290 0.1910695045667577 1.5488821384824811 68 39 59
0.2940900850452829 0.0976312035833894 1.3343661113531928 41 11 0
0.5238419088133378 0.1710447074607256 1.6069044184535235 40 53 44
0.5199473366636223 0.1727135618761672 1.6076163630617850 127 143 133
-0.2111917330442611 0.0162573546927967 1.4486861824925987 30 6 0
0.5173508467207816 0.1744502867339120 1.6136305787891738 128 141 131
-0.0615568604724685 0.0496875576475593 1.3953680536889799 37 66 72
-0.0615568604724685 0.0496875576475593 1.3953680536889799 37 66 72
0.0616998545316538 0.0934921436644275 1.3193528930939653 86 134 144
-0.7129639107020674 0.0222562677245233 1.3008457428106395 60 54 54
0.2111616306923204 0.1179951350261190 1.3021291836750162 43 11 0
0.2602257474499052 0.1006944779502274 1.3136335099363559 32 4 0
0.0457864066740243 0.0988858130578456 1.3172657662022806 3 47 56
0.0444365030037610 0.2317249358626886 1.4831497253885786 144 116 130
0.1895724575874785 0.1132074224087244 1.2955409274394567 85 65 40
0.4755123345594672 0.1769199473545431 1.6413905249445642 121 135 122
0.4755123345594672 0.1769199473545431 1.6413905249445642 121 135 122
0.1955078426277703 0.1180911839101358 1.2879991318578019 201 187 158
0.0336314994558933 0.2416531687462443 1.4621321085354544 98 68 80
0.5525184063530637 0.1814039979088377 1.6366738082541903 107 115 104
0.4177984528721858 0.0862837358364014 1.3583538876614947 112 118 104
0.4109903396709084 0.0780668541932136 1.3758873932976152 53 61 46
0.4538529337131272 0.1875247929228773 1.6460412708158614 116 128 116
0.3273430980228388 0.1847188576503364 1.6755906136100422 136 142 128
0.0373998581924728 0.2587079988564128 1.4657453330019850 120 93 102
0.1903946416081493 0.1135365396746374 1.3098701951311336 153 124 106
0.1888412891764338 0.1120740066136295 1.3020189238031388 149 121 107
0.1922212889800588 0.1182400221061622 1.3048350032596367 75 34 16
-0.7705025816721445 0.2332289433972729 1.5556935166763031 101 140 145
0.0929543576775061 0.2189000598602509 1.6250223612408321 166 143 169
0.0584563389964312 0.1067274062201392 1.3274455919238133 93 143 150
0.4381036476200132 0.0914242970185445 1.3868955643409979 117 128 114
0.5820468491998939 0.2112969845650275 1.6521125359691775 43 46 37
0.4894053896519440 0.0965358754437533 1.3581489503800412 108 120 110
0.5107904168614523 0.1112652157524337 1.8177078715527999 96 108 96
0.5642182181357720 0.2338184591007925 1.6243361093452047 92 97 90
0.5605706377706706 0.2360281761091303 1.6274596510713533 94 99 92
0.5574441716670154 0.2382956604794020 1.6344622168664447 55 65 54
0.5024720018776265 0.1055794957950009 1.3675159957281842 57 68 54
0.1231808584404227 0.0932897425051862 1.3849869615922712 29 82 96
0.5228654816013040 0.1092508066206307 1.3634643266666449 109 119 110
0.1222820892721637 0.0968465871764486 1.3559857592610696 67 34 17
-0.1251506752704616 0.0700094248366827 1.4023057755528479 72 97 104
0.1761307497365661 0.0965494405434843 1.2831411754946376 48 32 17
0.1987611977596656 0.1278762062358479 1.3271173754194370 81 53 32
-0.4974571112645099 0.0140232889943847 1.4218723865678138 43 9 0
-0.0332305091512632 0.0779313240877900 1.3960197707767590 40 73 78
-0.0332305091512632 0.0779313240877900 1.3960197707767590 40 73 78
0.0702999516181759 0.1093264347153327 1.3420420153587451 37 71 80
0.0702778907560719 0.1095139280472557 1.3417471818743418 37 71 80
-0.6460848505880367 0.2710218876283075 1.7399044313485439 68 107 114
0.4996624792078947 0.1029435529108146 1.3647160617397029 134 142 131
-0.7531412602508177 0.1097963870022683 1.3665373761083817 33 59 56
0.6699926285477641 0.3325406803373513 1.5779215135803941 85 60 53
0.0056428677196183 0.1284538536876104 1.3479955755629296 114 155 159
0.5044787167001876 0.1046416112873422 1.3641146077680055 113 121 110
0.6131995133921234 0.3221319998413344 1.6166174597807192 84 59 52
0.5040290047255013 0.1048625254259414 1.3637764896359004 117 125 114
0.0034815771102892 0.1139513274535388 1.3366439527719631 117 164 170
0.1410968986534830 0.1114515767602075 1.3893797689918597 62 23 8
-0.6217038132124972 0.0504937188305754 1.4959792704892789 230 179 88
0.6044252177829319 0.3328173136245540 1.6629425265180080 44 20 10
0.0680521624960945 0.1136472562127399 1.3437598025751645 45 79 88
0.6506031690987887 0.3522924965121205 1.6154470718869507 59 39 28
-0.6562413201433738 0.0121754878236277 1.4686107244134490 228 186 88
0.7331916505409840 0.3564141627026320 1.6248652063662568 106 93 87
0.2211299148291113 0.1119723182471659 1.4126716488504876 20 6 0
0.7794348492841787 0.3627920385974834 1.6146310107181403 59 47 35
-0.6562413201433738 0.0121754878236277 1.4686107244134490 228 186 88
0.0064264745204674 0.1178341385432424 1.3376549069011956 119 166 172
0.0063507806384086 0.1176923370754544 1.3377356016894801 101 136 142
0.6511523556044425 0.3557593691464713 1.7624514367747908 80 67 51
0.4419837013898251 0.0955835266369741 1.3897054129486481 125 136 122
0.1694143225041243 0.1257104519367075 1.3268486683007745 56 29 8
0.1770372384951814 0.1228667962435042 1.4064433283126643 60 43 35
-0.0168272143374723 0.0849600049055146 1.4037417716676905 111 139 142
0.2039015233623622 0.1169567190461119 1.4233780150243336 24 9 2
0.2131600742538492 0.1106693305593332 1.4398391556695826 65 66 61
0.0207366600475599 0.1235870483194240 1.3373492186798990 65 104 111
-0.1605380818892322 0.0916067620475611 1.3986271363529246 122 172 181
0.6348637515976422 0.1790234494795613 1.2194785135001571 95 75 64
-0.0881179990900214 0.1130905827018616 1.4671853201027596 116 95 94
-0.7326956594772446 0.0931169467360445 1.3463136306103980 45 74 78
0.4174164496352926 0.0852204399882460 1.3862431723951911 53 61 48
-0.5930764439253471 0.0926717877577129 1.5327455722772612 240 188 167
0.1339345102737757 0.1543974087851374 1.4285521022620185 168 135 154
0.1197838213881779 0.1538263247947488 1.4339062748252482 171 139 163
0.1181653805367569 0.0975841950052059 1.3906736565508682 117 97 124
0.6179969650118761 0.1753959808880456 1.4093319039514280 42 30 16
0.1323744869146204 0.1062711080530329 1.3905894296056889 93 54 37
-0.1501241828111222 0.0961366433692961 1.4114106281592584 52 34 24
-0.0834422093231855 0.1297169205408111 1.5213143453499745 60 27 44
0.2448123972093661 0.1359336063228548 1.3518030773194334 27 14 0
0.2543201407693619 0.1127955021894378 1.5679629256274523 75 87 83
0.2543491152340511 0.1126811330560490 1.5682178165144596 66 75 72
-0.1355188815813974 0.1265452794406330 1.5461634696663575 157 118 139
-0.1367583104125694 0.1199483575103086 1.5593680687686700 157 118 139
-0.1145364371896825 0.1288693233608889 1.5437173800318944 146 108 129
-0.1142898029154450 0.1288480559228362 1.5440148325758312 116 83 100
0.3163150625346989 0.1193217348889467 1.5817684716777836 116 129 119
0.2582485399118329 0.1255575033465834 1.5761695128816680 83 94 88
0.2586353416246034 0.1251371757969245 1.5768885821367087 127 140 133
0.0799988889625984 0.1720406235000812 1.4666220130877914 73 44 66
0.4726876917310187 0.1270288590923581 1.5931987437850728 105 116 108
0.0815430356430004 0.1289034974118841 1.4194376963117270 106 77 97
0.0815430356430004 0.1289034974118841 1.4194376963117270 106 77 97
0.2474123008601015 0.1281496741818745 1.5922088269137233 35 48 41
-0.0957835649811266 0.1367776379595771 1.5669430844541743 101 77 91
0.5446381095022637 0.1384353412997327 1.5829639422452380 102 112 104
0.6343240894848475 0.2450207030617548 1.3693699037830058 117 85 70
-0.2668557884198738 0.0685276737901318 1.8077815446781060 180 138 88
-0.1609013625753949 0.1625845461737357 1.5790224166932278 134 105 125
-0.1744615280021765 0.1606911040014553 1.5957895033412286 82 109 116
-0.1188627463771179 0.1741175987304580 1.5651523518261408 161 127 151
0.4778340530922623 0.1671394159055815 1.6278121384948727 69 81 69
-0.7606362026453958 0.1463211227960319 1.4106519664743777 60 90 90
-0.0151201439995896 0.2388311161615921 1.4505287749767746 174 142 147
-0.7715670678426355 0.1472074186536217 1.4129259336998827 53 82 80
0.4871346065242785 0.1781236681564657 1.6321272497100168 111 125 112
0.1230020831707796 0.1525793669618020 1.4279034601577270 53 21 42
-0.1324570331080529 0.1169263618661608 1.5166654472074856 166 126 153
-0.1442640818372421 0.1178908107946440 1.5279861689931298 160 117 145
0.1309008533034833 0.1547611364829045 1.4550660184937032 31 32 27
-0.1513295183126158 0.1190078826263359 1.5751415930424932 61 28 39
0.1669822030573695 0.1541621340723041 1.5253108786185976 46 56 47
0.2597498584622492 0.1362607275882570 1.5883996764055412 115 128 121
0.3267528596089581 0.1500802775410073 1.6191099516621259 134 147 137
0.3333626965115340 0.1493813858985040 1.6234660037044324 58 70 60
0.3890077377410096 0.1860821669593669 1.7324837956878594 108 114 102
0.6546188571765349 0.3534057955524033 1.6178860251342679 119 97 84
-0.4999008457141802 -0.4496899062867506 1.5063213241353661 189 182 166
0.1283614944238767 0.1347355969941579 1.4077797660364946 98 71 88
0.2527799887567850 -0.1924258205368298 1.2949023926638961 161 144 134
0.2728621138459157 -0.2223038820252614 1.3222656958142038 164 152 140
0.2877825631607512 -0.1853305329418719 1.2922177401371395 37 19 9
0.3211802650811741 -0.2197115509647145 1.3433421589987706 29 17 5
0.2634820522615072 0.0905911982204699 1.5492444971319164 57 66 61
0.5612680960202334 -0.0840979084228901 1.3563316488409518 60 56 45
-0.0507049654574835 0.1506947945658892 1.4286978408092601 66 32 31
-0.1762448576849311 -0.0914469309749771 1.3999772121776994 23 38 43
0.1115322413354581 0.1700079621058552 1.5052079657690460 48 38 28
-0.0776640254604983 -0.0173042257367349 1.3592896408650905 29 44 47
-0.4733105230033982 0.1539030885743261 1.6220162441467640 163 111 90
-0.4192926868751218 0.1758674901717006 1.5828181123045155 225 175 150
0.2086812449748952 0.1304893043098635 1.7145688855562065 124 124 114
0.4277483892867301 0.1963086207452922 1.6279093635373947 80 91 83
0.2183296847067163 0.0940280274275549 1.2742431734906485 40 13 2
-0.0062403708256606 0.0662867814899451 1.3347050035969885 31 52 55
0.0068113558390846 0.1392843840850826 1.3750904142488070 135 89 73
-0.0038381498253714 0.1393491708136127 1.3791578061590768 162 116 103
-0.7488955005292910 0.2655294147804311 1.6321628276625268 227 224 219
0.4120582869871878 0.0834501344412064 1.3481340876536538 113 117 103
-0.5890200496599804 -0.3567691152378660 1.4368999587094884 62 68 58
0.6514225092801371 0.1971616840247081 1.2234938050432540 80 63 55
-0.0879741296094673 0.1258149703151656 1.5111473928852188 147 109 132
0.3431656249633024 -0.0559012976640933 1.2628432046814533 25 12 3
-0.8182247014386491 -0.1563759121307542 1.3871278806733160 119 105 96
-0.0415667972213352 -0.1564625815128876 1.4051201972180529 179 175 163
0.1307504225399341 0.1007536482141336 1.3849532434905887 43 19 7
-0.0292428313485178 0.1122646751042170 1.4088289930936986 90 111 116
0.1262032071777024 0.1212359899878045 1.4019715262221699 57 32 53
-0.1683136114280158 0.0921612245968645 1.4596943209202238 223 146 74
-0.1237428955317764 0.0967125052434654 1.4063411046866596 32 56 60
-0.1561341790107238 0.1684443336606270 1.5772476723135294 97 68 86
0.4770802165250592 0.1660614993275101 1.6424816732225618 116 130 117
0.0829359078242626 0.1880634972581264 1.5991590763668948 133 103 131
0.4587497130836226 0.1859822529913893 1.6448627001091869 103 117 104
-0.0309811262285704 0.2642036778574559 1.5025415069000909 217 180 174
0.5674837605515752 0.2417208847907566 1.6392983052414192 90 98 87
0.1307453938134168 0.1428599591244842 1.4120371103433049 68 36 60
0.1306543182827629 0.1436538145073697 1.4108094787389012 86 53 80
-0.7774757417513941 0.1859424333530726 1.4654570422084818 120 155 159
-0.5433100933458073 0.1130793171030944 1.7408386106257632 226 171 150
-0.7441270526104289 0.2420257845874334 1.5845305068044391 41 72 77
0.1350876476814604 -0.1883155468751454 1.3598614181378648 57 45 31
0.1537081346540389 0.0989773115773886 1.2889992146183444 35 17 3
-0.1472069499237942 0.1082121399775574 1.5311175533409218 122 75 59
0.0983706099111411 0.1785275870120425 1.5009290050318871 46 44 47
0.1695446884224563 0.0701396711295460 1.2593627903085374 37 17 6
-0.0883076888945577 0.1697077377359521 1.5764401931396737 64 37 56
0.1996591867214609 0.1485834712658332 1.6357539411933291 130 140 131
-0.4501864245539919 0.1599888130015715 1.5925522612707135 126 73 55
0.5188244541307176 0.1696037490760967 1.6247351597727508 124 138 125
-0.4528720042584657 -0.1082342190738775 1.3688064283489350 195 130 50
-0.0671407567862491 0.0050213287601542 1.3625080911423642 36 16 5
0.2500866670649542 0.1074038857379035 1.3514348700674348 49 21 7
-0.6048856564982841 0.2690094976328106 1.7749269995161046 224 223 219
0.1446650258957736 0.1167125768491748 1.4043058170140916 23 8 5
0.2863851327842184 0.0834731158697146 1.4085449234386875 55 66 58
0.2124179880998913 0.1395924164442415 1.3370819365074680 165 148 118
-0.2022809806097789 0.0296848500369511 1.4279287979748119 49 29 22
-0.2022809806097789 0.0296848500369511 1.4279287979748119 49 29 22
-0.0032996966828036 0.2617204082899242 1.5618150550447343 235 187 167
-0.1012761736894198 0.1316507363156560 1.5412355504121318 138 101 119
-0.6224321374589129 -0.0237133424031178 1.4313257440052494 66 48 8
0.0321981945819145 0.2376264939903159 1.6235667584657045 95 135 143
-0.0851814593400785 0.0221573576023772 1.3884826790608877 61 81 88
0.3355183965753817 0.1112509163183748 1.6551314220663160 139 153 140
-0.3021147760223774 -0.1620544123448307 1.4074433953050940 165 107 93
-0.0445379413511691 0.2068405393304657 1.4529716062702416 186 154 157
0.0225585263841086 0.2359255608278635 1.4461126572278966 104 70 84
0.1348144812660106 0.0856960169129891 1.3120744531591590 42 25 15
0.1422153012109978 -0.0288174577802798 1.2930409260523916 77 64 48
-0.1309861064145190 0.0591249237957668 1.3814388276608429 20 40 49
0.1422153012109978 -0.0288174577802798 1.2930409260523916 77 64 48
-0.6354373311912652 0.0248415304408228 1.4782436693872205 207 160 68
0.7283932573974110 -0.0697579162645709 1.2929443755856387 23 18 14
0.2069631342978252 -0.1639899918657466 1.2949789075435580 31 13 3
0.0504947174811659 0.1295923819254470 1.3461713626622061 45 92 100
0.0668614987005639 0.1255215656799172 1.3533526624387362 87 124 132
-0.3652916595690099 -0.4058829502560563 1.4713304812692571 161 155 143
-0.5325332142555173 -0.3677167262433469 1.4354837299678209 104 89 86
0.1915417734180521 0.1347182285323284 1.3423936850514817 95 80 51
0.0378647762624282 0.2246417713901272 1.6292746813844843 155 127 123
0.0599964559141306 0.1310619543811793 1.3534226592599750 97 137 147
0.0038462040081455 0.1327990507582466 1.3530169928261901 111 159 161
0.1448757015933614 0.1109329288990292 1.3937540370462538 61 23 4
0.0384095673330767 -0.0183719841609849 1.2834111956805421 94 118 122
0.1938236994408632 0.2097588932630604 1.7023387893203719 92 123 126
0.0055014701611051 0.1389315108177310 1.3582256548042544 131 182 186
0.1921418061892879 -0.0621519903539699 1.2739331767866253 100 84 69
-0.0956152296269629 0.1110118436228747 1.4090619632473815 153 174 177
0.5605833357371655 0.2428435137062651 1.6584768105525263 109 121 109
0.6257675957063660 0.2942752365994646 1.5781421602966850 49 20 12
-0.1226954130703839 0.1044040806254034 1.4358049528864205 36 19 11
0.1064982872020090 0.1269372223122238 1.4113440291354435 76 45 63
-0.0893432186404970 0.1136796881137220 1.4468072136715191 24 10 1
-0.0895961040620670 0.1126482308909689 1.4481848300951803 23 9 0
-0.1301743978873412 0.0963607660170038 1.4806006394458604 134 100 114
0.1008069994133815 0.1328184832130994 1.4193900097703875 70 41 61
-0.5939808195588816 0.0792557039637373 1.5103962369980595 238 185 93
-0.7019813512583940 0.0197749364550198 1.2987236280897376 86 71 74
-0.7013433674642123 0.0200819999506482 1.2982292148104992 68 64 61
0.7511639311784839 0.3408776378738940 1.6059725153005118 111 86 79
-0.0917346983942662 0.1148271393702330 1.4702199147887041 80 46 60
0.2757806899030198 0.0480240860067656 1.2409401164743161 115 80 61
-0.0896043169794788 0.1196831271031635 1.4735474702930533 89 53 65
-0.0620049637205826 0.1249615160804221 1.4694989176948163 94 64 72
0.2173880541272173 0.0517147619180902 1.2408057145985323 190 158 137
0.2173111621242541 0.0517151925210546 1.2407495199789351 172 135 108
0.6248293865060999 0.3134755218821892 1.7905514184547744 129 112 102
-0.7770414619922250 0.1531466795849867 1.4240794190742834 100 134 143
0.1109988594361564 0.1561546795675679 1.4359860098052641 79 47 71
0.2280932298576663 0.0586471893197615 1.2426194831014092 89 54 35
-0.7635454674800004 0.1582941474423760 1.4240544082936166 46 74 77
0.1461031785174373 0.1520092064884285 1.4595693435327410 120 127 119
-0.1162867812268369 0.1178584298114414 1.5244954743780594 127 92 116
-0.1162867812268369 0.1178584298114414 1.5244954743780594 127 92 116
-0.1325636721127777 0.1209647619707806 1.5364725490588569 55 17 40
0.1365351029206223 0.1573587038761259 1.4673739263510488 142 150 139
-0.1046207981507081 0.1285132203781752 1.5328609664716899 79 45 61
0.0253364248408744 0.0387239646921402 1.3054894469104912 50 81 84
-0.0843162902695258 0.1364651700026668 1.5360996463128864 134 102 117
-0.0853555159222350 0.1355523645882224 1.5367836105447474 134 102 117
-0.6972892803716740 0.0362095193213783 1.3065002214373980 117 146 154
-0.0201779473743386 0.0430548651047001 1.3722570459663124 98 135 141
0.4495391648086965 0.0579982412750648 1.3075358551908070 56 59 48
0.1935828633970434 0.0861599532720815 1.2634576713956078 107 90 80
0.1937261797006170 0.0855881439129337 1.2641376983792973 107 90 80
0.4585308347411691 0.1197114326974630 1.5971892049716603 117 128 120
0.1503961526000652 -0.0590230512014984 1.2916966582423177 83 67 54
0.1934980299569680 0.0872738841028150 1.2667819105803475 45 24 7
0.3047485586307525 0.1223925492788298 1.5935274739009331 116 127 121
0.2516727991362452 0.1299508122591718 1.5891969915082702 89 102 95
0.5021648039369302 0.0818176674342808 1.3418620440268942 13 15 10
0.5338583105111239 0.1337290131867683 1.5835283789112073 103 113 105
0.4381098937921680 0.0601521572108843 1.3237315650746180 125 131 121
0.4383910957441656 0.0594305942197195 1.3247405125006937 96 99 92
0.0908209948275900 0.1774634781019156 1.5033019152860616 149 121 143
0.0969192409432465 0.0616724252081217 1.3266618693214032 103 143 151
0.1462362108877601 0.1812343182211856 1.5154583483522130 46 43 34
0.2601027588650455 0.1460309207766289 1.5962628879667755 124 139 132
0.3618837484991494 0.0800410696649029 1.3251324597849181 35 47 37
-0.7795525957135283 0.1979468731247039 1.4851718316964453 101 145 154
-0.5391535710334499 -0.0791694369940666 1.3837022923489366 121 72 13
0.2244021919596065 0.0472113397585776 1.2379381108556586 110 88 75
0.0556960705287820 0.2219018435246199 1.4624220793122811 131 98 107
-0.7826232523332272 0.2038166859482667 1.4919743030904242 32 61 65
0.1889601256814051 0.1110723615701069 1.2917030711086035 91 75 50
-0.7030464628938006 0.0229179778835070 1.3003014887767521 98 127 131
0.1213941034254967 0.1896741679004619 1.5442158390361373 169 141 163
0.3188360909767202 0.1561706359613384 1.6321064425156666 41 52 44
-0.1290539678993581 0.1494725236923431 1.6472222491354438 108 165 174
0.3816495863150037 0.0748004857735151 1.3825387687561124 123 131 120
0.3028897581569374 0.0924019501575443 1.3295921982648706 45 10 0
0.4294704280737731 0.0860920438377283 1.3435381680323417 109 115 103
0.0996883867653744 0.1944946182720731 1.5560546124243939 171 137 161
0.4692916862501220 0.1007215124248311 1.3214174062209865 78 79 71
0.1001066500936559 0.1932267588590434 1.5579904426008111 171 137 161
0.4261443193704426 0.0843154269932538 1.3492966045243244 56 60 46
0.4257593522828883 0.0849073982536286 1.3484189613309980 56 60 46
0.2420111640535479 0.1120026122587566 1.3059196900610859 83 54 38
0.1911833742884383 0.1165977725135160 1.3017302755375546 86 54 33
0.2881048726759847 0.0774341061714010 1.3942643915903206 82 89 81
0.4855267700597943 0.1735595186711855 1.6311569627304163 57 68 60
0.4903117612995362 0.1665737956628663 1.6458642500148926 75 89 76
0.4888877935830044 0.1749187252438674 1.6318890250403031 35 46 40
-0.0261551178870625 0.2485007388128967 1.4607190913935282 85 53 58
0.0701099397005919 0.1879338141893833 1.6039483645114510 136 107 129
0.0632133215614126 0.1061251267858807 1.3292133016365664 43 78 84
0.1977066333924453 0.1237245939071707 1.3256618815973173 33 10 0
0.3773414789561730 0.1911719042704508 1.6479644040970234 21 31 23
-0.0281945104563747 0.2605652607736914 1.4839969458118532 100 66 91
0.5025607702289613 0.1053555901019671 1.3677316924088461 57 68 54
0.5915203242437130 0.0901367699222314 1.2870817016842149 63 54 47
0.0027410783295137 0.2689059096193092 1.5012935652387689 171 139 162
0.5610794298139014 0.2221362265703779 1.6196041411353888 101 104 95
-0.0796304536696115 0.0261466888554773 1.3846911163938578 42 60 70
0.0423530826060283 0.2214182422437053 1.6378580839046832 68 88 97
0.5633232567041705 0.2419185612391157 1.6330618492251474 119 131 119
0.0044934268183355 0.1122871786719426 1.3341520347448199 78 127 134
-0.1866385667152412 0.0542998320922938 1.4305894149205980 76 59 41
0.3421267423242977 0.0774842500074357 1.4014972764307303 128 140 130
0.5255531455508385 0.1227209933413345 1.3677765379852647 44 54 46
-0.0647280972955729 0.0390077035116411 1.3892924041867059 40 65 69
0.6023090044482643 0.3157347296721582 1.6355867515872937 47 23 11
0.5224483356373570 0.1240171917313874 1.3782707568811448 110 123 113
0.4974472344906468 0.1031131758155914 1.3685820708493732 53 64 50
0.4977795847529921 0.1027586855351705 1.3690241316564733 53 64 50
0.2063296054436109 0.1286227078043699 1.3243964116185281 25 2 0
0.2552460115391858 0.1242233185115431 1.3811434635649822 37 28 21
0.6420751894502816 0.3379257466690783 1.5993411071118004 44 20 10
-0.4088198197776522 0.0948982753271997 1.4236242885532766 166 105 87
0.1609633228327568 0.1117092001409905 1.2907116390168414 110 58 36
0.0493262495189505 0.0966686429249951 1.3147879113171785 103 155 166
0.6562193941080215 0.3392275741951261 1.6140358627781968 85 67 63
0.6159377222557482 0.3348400185400130 1.6312536487415650 83 59 49
-0.0655429195220031 0.1080899080675700 1.4048573645967761 49 70 75
0.6438956492661297 0.3484897240829737 1.6141150730978575 45 25 14
0.7313648984862496 0.3550931187228046 1.6075680044135814 100 87 79
0.7313648984862496 0.3550931187228046 1.6075680044135814 100 87 79
0.0658571822481947 0.1190227491197107 1.3442516863995160 38 81 88
0.0658571822481947 0.1190227491197107 1.3442516863995160 38 81 88
0.0368858402934444 0.1255567124175011 1.3365321498450868 56 103 109
-0.1291252478929013 0.1018179343953831 1.4328803805729762 50 32 22
0.0075399263445581 0.1223582366961052 1.3425957357091665 50 83 88
0.0075717488836661 0.1223855717744304 1.3425662096091335 50 83 88
0.0785423410020281 0.1172367682490655 1.3635527499032329 43 76 85
0.0193023055580951 0.1294813360200737 1.3430549828865812 111 160 164
0.6526993205096644 0.2312068162893304 1.2634629660782206 47 23 13
0.4272747616636199 0.0870949109098463 1.3802357274071995 121 123 110
0.0944528152663945 0.1528543340245567 1.4416072546513503 140 107 128
0.2187253296648559 0.1218204826018543 1.3267518490504815 36 7 0
-0.0816342018798953 0.1286717819352353 1.4919188144216400 63 25 48
0.4178961813543711 0.0900027229272933 1.3859610585660294 128 138 127
-0.1164982333473550 0.1263849482134041 1.5345709174069722 176 138 161
0.1741464819679082 0.1566364961505632 1.5319869265334314 52 65 55
0.2596558233388990 0.1355742580902350 1.5895718153964473 115 128 121
-0.1120799818781017 0.1122977803009548 1.4328437369255280 31 16 9
0.6361725931074635 0.2197314083700918 1.2586628864307683 94 76 62
0.1464575735488836 0.1287006311464240 1.4227088200616536 29 8 7
0.5100319885276170 0.1637288688273414 1.6072970816015946 58 71 61
0.1480790535934507 0.1717844411407678 1.6179639256908311 72 78 74
-0.1829658659257718 0.0968988203090529 1.5302605022020079 244 163 81
-0.5974970063694696 0.1006150447985685 1.5640335174982616 226 171 150
0.3392139956332684 0.1322362858787020 1.5967202789905390 85 98 91
0.3392139956332684 0.1322362858787020 1.5967202789905390 103 114 108
0.0623701158869767 0.2030922430970764 1.4638459875629899 216 190 193
-0.0844881506359953 0.1584053949682782 1.5661032431895661 85 63 75
-0.1036880080754571 0.1764986947911665 1.5625344126510499 63 34 54
-0.0465397170941360 0.2269568667900407 1.4988751942716267 177 146 152
-0.0368718162437950 0.2476986155301280 1.6126115392271889 124 155 158
-0.0368718162437950 0.2476986155301280 1.6126115392271889 124 155 158
0.5688676601059615 0.2431197386308112 1.6315213523395162 127 135 124
0.5647534867690115 0.2471690836036949 1.6356025486150745 113 121 110
0.7388704354188349 0.3490862652036588 1.5957183091844422 40 23 15
0.2669822309613236 0.0872054267599968 1.5445943184126316 26 37 31
-0.1361486521025175 0.1204625475228742 1.5399622120810230 62 22 46
0.0741071094522202 0.0868733521742896 1.3392448912909747 14 43 51
0.3173815722823397 0.1429825018037659 1.6248147814838165 113 126 117
-0.0250565037149113 0.2389993744269928 1.4573822833631309 135 102 111
-0.0183110002399583 0.0481618550320549 1.3687759074154064 82 125 134
0.5160939503402702 0.0778257917836868 1.3382851550071373 80 82 77
0.5161255111604997 0.0776149323829132 1.3386746606046374 80 82 77
0.4342732932161748 0.0857455477694303 1.3648243569962677 103 111 98
0.3753074234639295 0.0790670612404030 1.3858221141048384 35 45 36
0.2330909303375406 0.1233882339152123 1.3360918312861754 131 101 75
0.2504186970773223 0.1213127710731920 1.3546386664465113 37 18 4
0.7385550822040323 0.3509513806917739 1.6051582774180810 36 21 14
0.5946351745622551 0.1842497635707041 1.3529493712686855 24 11 2
-0.0994448470285700 0.1071795522446174 1.4257129682443512 33 19 6
0.1253827237679553 -0.1383567931485859 1.3368627487295803 76 63 54
0.0916316117923415 0.1923579669034859 1.5975863064001867 127 95 119
-0.1299148228164249 0.1115723336790835 1.5096150974070881 96 52 41
-0.7756116242509832 0.1982204518860790 1.4775564510389283 112 147 151
0.6584289082656288 0.2800177201390191 1.5524870667868798 91 62 54
-0.7233545678726794 0.2549564357316501 1.6281482587032339 63 92 90
-0.6277408187101470 -0.0562165080285478 1.3118072227181801 40 58 62
0.1165377503681593 -0.1594994109860926 1.3604844200611355 20 9 3
-0.5411710258435931 -0.1593777809529879 1.3564295499973822 159 129 43
0.3968530659719425 0.0473881649486057 1.3233143260573534 91 99 86
-0.3445926955117948 0.1162244106912127 1.8037682595879838 196 127 111
0.1265890776897535 0.0985098409747627 1.3526532185168776 50 26 14
-0.5923331983339483 0.2569631128986996 1.8054402855791463 227 227 225
-0.1798944517578346 0.0666115795132852 1.4261114444018301 53 35 21
0.0263675158139141 0.1446158278123570 1.3628283442726119 207 175 160
-0.5712236618240963 0.1153120588290558 1.5683371041747811 123 69 57
-0.6261765762967821 0.0297605407084558 1.5062691337010734 239 192 100
-0.2174166612578551 0.0440229948699254 1.5403421452109676 241 167 140
-0.0237262013260848 0.1542699341506234 1.4100219970065526 223 167 150
-0.5878610093812168 0.1387886394926886 1.7240159216735182 96 87 30
-0.2785528309298680 -1.0980176573626534 2.6076808179153694 180 173 157
0.5763900304753229 0.2314614641823089 1.6261917351819657 78 86 75
0.5918536886897253 0.1698245557625495 1.8464080071961138 115 118 109
0.4353281532571350 0.1717627870219658 1.6214963231475139 23 25 24
-0.1232877318742875 0.1513725365264236 1.5765497818784986 73 42 60
0.4184015820877640 0.1951245455753824 1.6369475374894851 119 131 119
-0.5221134054619109 -0.3633078635587970 1.4302675768780129 93 83 74
-0.0390360261462024 0.2541003566414427 1.5282664356476476 169 125 124
0.3442376765842842 0.1906475423065445 1.6721525139550493 98 108 97
0.0384890466928492 0.2247106604883054 1.6291546693524337 155 127 123
0.6526591300056550 0.3358076050589998 1.5850164036241738 105 78 71
-0.1312347134573039 0.1050452708396356 1.4085076046182743 137 162 166
0.6911946030630208 0.3569750288278508 1.7855562456024281 116 84 71
-0.1231122255923291 0.1001847778023009 1.4319935404388919 28 13 8
0.2210952181311038 0.0150945369248079 1.2417752916652471 74 54 43
-0.0277952392965543 -0.0523418189796285 1.3201387033648742 87 113 112
-0.0229902082488172 -0.0533410887652825 1.3221143084277656 103 128 125
0.1538318244610395 -0.0070206124124970 1.2892357453931549 49 36 20
-0.0000555969463293 -0.0260069005090836 1.3095384915165913 110 145 147
0.1661315196913410 0.1262694041334772 1.4111255483034821 35 22 13
0.2200861355049222 0.0554175745827770 1.2477281254225745 34 12 0
0.2200861355049222 0.0554175745827770 1.2477281254225745 34 12 0
-0.0922828086302221 0.1111199063406712 1.4586249863963869 97 80 72
0.2230850761951108 0.0495223325631568 1.2399235796105526 46 20 5
-0.6675778544477241 -0.0020513407306903 1.3064557040667815 40 65 70
0.2243523733837031 0.0581451681049538 1.2485857736727028 112 75 56
0.6026834131177005 0.0722674063684825 1.2729328863154747 58 49 42
0.6245998176354147 0.2301628534774927 1.2898923835905098 86 63 55
-0.6845196041288111 0.0164335265500901 1.3082248995192751 25 54 62
-0.7810885111191486 0.1419414362379226 1.4201450211813549 212 209 190
0.3249194226044407 0.0690050639237172 1.5551889064293516 71 82 76
-0.0987749681475050 0.1168249938713505 1.4765877919823385 59 25 41
0.1586969663055152 0.0385497990019799 1.6089465508935339 55 65 57
0.2132016123184595 0.0883628938035773 1.2644746673600491 41 14 3
0.0277285578123087 0.0389926399860146 1.3034972284667508 82 103 104
0.4501374056140159 0.0805206957425509 1.3186320444189317 35 35 23
-0.0641878641913160 -0.0030707309787046 1.3580353144689219 69 94 101
0.2460977793568262 0.0959015648084633 1.2856492284019914 26 8 0
0.1494908928124076 0.1496327437721709 1.4458370362789523 45 41 30
0.2086159611440262 0.1143894078759961 1.2869457884510267 111 60 39
0.1916538709071865 0.1136443450875251 1.2913705394775052 158 141 115
-0.7239749576989913 0.0829785483883147 1.3300969267870304 49 80 83
0.3295330625243214 0.0806439492839293 1.2777820393779016 43 17 2
0.3161124610064247 0.0824071913363690 1.2779201412745256 42 13 0
0.2475079397394194 0.1068014779241676 1.3030230206084963 44 18 3
0.2475079397394194 0.1068014779241676 1.3030230206084963 44 18 3
0.2426641338360175 0.1135978257466333 1.2950777479519289 90 62 48
-0.0891479236220666 0.1270622966648110 1.5093122995818016 93 59 76
0.2644695896873826 0.1020798904327428 1.3319216570454155 37 14 6
0.2796256519150349 0.0999368878090323 1.3323167799599855 43 14 0
0.0348656295759005 0.1088577381850504 1.3250573419922800 103 140 148
-0.7340676407531745 0.0567266694713758 1.3196492703855889 30 59 65
0.1809376746549676 0.1244251403681582 1.3174588143875132 64 29 10
0.2343730567170722 0.1055076096695018 1.2923712444914062 41 12 0
0.1748625569677143 0.1457091225862319 1.5025279633312771 120 132 122
0.3252391953314243 0.0870406721164449 1.3210518613570603 54 25 7
0.1412867148475950 0.0982261544665518 1.3042802404556757 59 31 17
0.1412867148475950 0.0982261544665518 1.3042802404556757 59 31 17
-0.1981754947982701 0.0391592925965777 1.4366038625236028 38 19 12
0.3499851632073978 0.0851845872678461 1.3265612386095480 23 19 10
0.6441937182804307 0.2006856339658623 1.2288878100813641 70 51 44
0.2450623846788388 0.1096694964936333 1.2960825746419442 47 21 6
0.0536583317851019 0.0964481140859904 1.3158190650744306 51 81 89
0.2904491080132912 0.0817544286886389 1.3986293406819477 117 127 119
0.5061606254915810 0.1061532579233911 1.3673286203734087 58 66 55
-0.6603440224775157 0.0197167237881107 1.4753738952889457 227 177 82
0.1963401781069517 0.1178523167220745 1.2961531737689234 237 221 195
-0.0939803908816217 0.1343322636409272 1.5436613855562336 87 50 67
-0.0939803908816217 0.1343322636409272 1.5436613855562336 87 50 67
0.4519748337116347 0.0975590981200419 1.3870157441445408 118 130 120
-0.1631919552126046 0.0884227179960844 1.3979729614424563 122 167 172
0.0882395180955376 0.1743040303149631 1.4877000142132841 174 147 166
0.3158181276130453 0.1241424883506500 1.5909321367419773 47 58 50
0.0807131425219281 0.0926222017531482 1.3440368114161754 36 66 74
0.2412876779378327 0.1125744080775553 1.4057151451734264 45 39 27
0.1941518437547317 0.1207693672481636 1.3087539880080550 82 34 12
-0.0068277195323426 0.1227680748870242 1.3922309171167513 59 63 64
-0.1176668943114358 0.1023366353554166 1.4233571605646627 38 28 18
0.1089145984174318 0.1215979649164898 1.4060810029746478 119 91 106
0.0920631549080593 0.1185838535223730 1.4137069379777916 56 27 47
0.0578645845562955 0.1102252168603451 1.3308509119127014 87 116 122
0.4110513582017595 0.0800020523788903 1.3780624968550939 102 108 98
0.4110513582017595 0.0800020523788903 1.3780624968550939 102 108 98
0.1185207655361511 0.0936027927243510 1.3566359435637143 89 142 156
-0.1138190728983272 0.1041296668534707 1.4463343620959208 34 17 10
0.0013110740237373 0.1107387052164608 1.3342477492327149 111 156 162
0.4199300325717248 0.0803447585090447 1.3826544415163460 67 73 61
0.0035667586436298 0.1146384027681040 1.3357566454804664 117 164 170
0.0938600776166802 0.0843537196902043 1.3798714657940823 77 119 135
-0.0770081533547739 0.1140939903050913 1.4609553649259714 84 72 60
0.2599735936881907 0.1471235833955020 1.5951454925081390 88 103 98
0.2601274695652935 0.1465339696885196 1.6011203318317822 52 65 58
0.2471796770348989 0.1203786862856021 1.6585181601788117 128 140 130
0.1119017418095546 0.1407189275662938 1.4195153027833767 65 36 54
-0.1807903614110465 0.0553527733303223 1.4189883467001840 38 26 10
0.4550184207731428 0.0930259424985166 1.3751027027840959 143 149 137
0.6272306878467752 0.1715362328776785 1.4211808361925882 30 20 11
0.1213980895540542 0.1904927863559961 1.5488271658962196 90 61 83
0.3224406052789003 0.1519104376740594 1.6260086626596695 26 35 30
0.5119251130986289 0.1074253471801278 1.3625656847796528 115 125 114
-0.7675718100328980 0.1668441919222200 1.4369010493120111 111 158 164
-0.4786687889007855 0.1521960588341683 1.6209954667865534 212 164 142
0.0898498088197751 0.1884871711718027 1.5621489208131876 144 116 138
0.4686519965335412 0.0995270051929460 1.3774549968474352 123 133 122
0.3383835991382060 0.1572644857650544 1.6282574410630064 53 59 49
0.0132792267608738 0.1232602126473130 1.3405985334395685 57 102 108
0.1144613447260480 0.1923275453348035 1.5626597785984235 152 120 143
0.4951403806476525 0.1645772219845782 1.6181122697557948 106 117 109
0.0355578000532445 0.1271735897922364 1.3388790612353951 101 150 155
0.0356148147231308 0.1270264839322893 1.3390353695677037 96 131 137
-0.0453035097911533 0.2302598193737384 1.5008464985494123 95 60 66
0.6782294322304311 0.2635757731253063 1.3164446150423126 88 61 54
0.3718412710313744 0.0901832045582913 1.3971041570661769 39 50 42
0.1486701329245477 0.1709888019639192 1.6189265893137457 72 78 74
0.0205730476933359 0.1278882297384768 1.3409929147511359 48 81 86
0.3836296914501735 0.1757636855897434 1.6155614790144051 91 98 90
0.1949388411267178 0.1334877035045531 1.7055797796717576 48 53 47
0.5110237884467007 0.1125917190706969 1.3735231557102663 63 73 65
0.1805276154155066 0.1548429591187135 1.5268269934747776 75 85 77
0.4659116534922974 0.1762316609835472 1.6439547487004438 58 69 61
-0.0028242143678778 0.1263067053246447 1.3509715816289705 71 111 113
0.4731220939080980 0.1826671571211690 1.6533970093021464 99 110 102
0.4675909167962247 0.1836031108101889 1.6539440136095978 47 58 50
0.4927387189615067 0.1889776043365381 1.6711447595769566 124 136 126
0.0709355453694215 0.1259040235623397 1.3602009625209674 51 88 96
0.4246356578513704 0.0978566481689542 1.4058137435523150 148 161 152
-0.0143189651402684 0.2592624912670267 1.5402132471790699 187 135 124
-0.0143189651402684 0.2592624912670267 1.5402132471790699 176 120 105
0.0371317035776424 0.2302406045686417 1.6372244890587799 41 79 90
0.3429056329175490 0.1434721484275537 1.6111211559403134 81 90 85
-0.1467569872322382 0.1239697923471018 1.5619236704509807 137 104 115
0.0015106490385585 0.2469758889948768 1.6244274066096631 233 184 169
-0.0005584697866358 0.2491161537238418 1.6406115038400300 143 188 194
0.5754466550486491 0.2547047770249943 1.6681811163623870 98 98 86
0.2566652447120032 0.1507175634835104 1.6161810444856495 130 143 136
0.6688049338591695 0.3273967611320823 1.5737310488985221 77 57 50
-0.7000261993358323 0.2710161271866685 1.7093982824610512 222 222 214
0.6379816318179985 0.3248873211276042 1.5951399250637375 34 11 3
0.6456531393340089 0.3395570495517147 1.5998165116254537 46 22 12
0.6478772960191013 0.3418130275923157 1.5983369224046606 36 14 3
0.0999777848097740 0.1913084709175896 1.5723018226757841 127 96 114
-0.0488848429541085 0.2275838112322320 1.5069159194484838 181 149 154
0.6512811847353652 0.3480118708036049 1.6064975224218028 31 12 6
0.6501120586690468 0.3491248509413049 1.6043226560471593 36 18 6
0.6420806254928610 0.3542359328154113 1.6285317909135948 114 88 75
0.6174319124124507 0.3519779457399129 1.6773347620766104 67 37 26
0.6139752026341897 0.3470194285299961 1.7123192175899578 63 33 22
0.0502435520411736 0.2355737918007315 1.4663043034233001 179 147 160
0.1148286601227698 0.1926775139786490 1.5495537234503409 146 117 137
-0.0387019406615133 0.2481179133935409 1.4820324683144355 197 167 165
0.5612886899711506 0.2514812912978664 1.6429170685134620 114 124 115
0.7366529724003337 0.3553133021135287 1.6101391224692656 44 29 22
0.7404880501539967 0.3574231009366997 1.6147179207747080 127 93 84
-0.0947797330046720 0.1169049090352456 1.4729457259164069 177 145 156
-0.5092039535330588 -0.2916957488090002 1.3685282274798893 85 68 58
0.1471455822313796 0.0717423556607614 1.2915469769398318 92 76 61
0.0473731137384862 0.2120618744587859 1.4278864025724733 135 90 85
-0.1697579273424833 0.1592450454404236 1.5858305211931396 92 50 62
0.1041236637906948 0.0717568792896085 1.3336977121621907 96 149 157
0.5105778039423341 0.0814059458351990 1.3415103048276595 23 28 22
0.2340743418886708 0.1345293299799034 1.3541138748793675 45 31 20
0.1768492685529284 0.1239792274807066 1.3020193362164432 69 39 15
0.4404231105231730 0.0850910092993790 1.3773266034922642 55 61 49
0.1166717390873615 0.1347373217334398 1.4098252676500467 103 75 89
-0.6302444198269598 0.0409044207739088 1.4878057232610205 189 138 49
0.1833870415406076 0.1165405940199197 1.3122255052490071 78 46 31
0.0223322702638797 0.1029497381746586 1.3313592131458032 41 74 81
0.0972335654092407 0.1121860176403302 1.4049999152036650 56 33 53
0.1304648572739384 0.1539109538080001 1.4563928145010518 20 27 20
0.1194810786659403 0.1686062181999677 1.4409918673162270 129 102 121
-0.6598943213621155 0.2780993891160353 1.7559775269162987 228 230 225
-0.5702899051503193 0.1204109311514970 1.5291935583878769 233 181 160
-0.0458122455653380 0.1156058648084710 1.4304029223005503 38 57 63
-0.6109540056179250 0.0978727696332450 1.5759655477540688 186 127 67
-0.6114347905332962 0.0977061726671445 1.5765921611168892 186 127 67
-0.4407335226901498 -0.3930382425533021 1.4488244923191569 49 55 53
0.1206315459466914 0.1418251677483015 1.4180494017463285 149 120 140
-0.5758390058571615 0.0947982560964898 1.6157838083487606 250 194 177
-0.2349917854612633 0.0703386743995013 1.7315581868158221 244 183 165
-0.6342024827379105 -0.0425106364140735 1.3168925832679590 37 62 66
0.1069058815134098 0.1936201383064636 1.6105286199474493 117 99 125
0.3038646208611660 0.1084663136110123 1.5820759531498574 63 74 68
-0.1315661963153658 0.1269800827700296 1.5475064418126125 143 104 125
0.1941418189105712 0.1401740884350968 1.7074591148400302 197 200 191
0.1971476134007396 -0.0508527113998454 1.2634227797839246 91 75 62
0.0006275396394874 -0.0337832200085521 1.2970643278242981 98 138 138
0.0947975983222891 0.1768999490857885 1.4806362799869035 156 129 148
0.1631873253154506 0.2075578163712416 1.7100412278355390 208 205 196
